# .PCD v.7 - Point Cloud Data file format
VERSION .7
FIELDS x y z
SIZE 4 4 4
TYPE F F F
COUNT 1 1 1
WIDTH 1242
HEIGHT 1
VIEWPOINT 0 0 0 1 0 0 0
POINTS 1242
DATA ascii
-20.36075020 -42.88215256 71.69048309
-19.82626152 -24.34010124 65.72682953
-20.17163467 -20.82750893 77.19468689
-19.66454887 -53.39754868 77.07034302
-21.00070953 -49.98839569 75.41398621
-19.82546234 -55.56835938 71.42150879
-19.78614235 -33.00303650 71.73278809
-19.04314804 -35.43910980 66.97939301
-19.79798317 -29.19468498 74.97963715
-19.23264885 -41.15504074 74.85091400
-18.97728539 -27.75579262 64.97540283
-18.72212029 -19.26332474 56.52068329
-18.21868324 -23.73363113 59.40963745
-19.25441551 -52.10803986 81.64356232
-18.23522568 -35.14284515 63.55242157
-18.15537834 -39.34334183 62.37954712
-18.50396347 -29.15570831 79.52236938
-20.06708336 -43.47903824 78.05364227
-19.33369827 -48.62207794 82.58950806
-18.90338516 -35.93911362 75.32538605
-18.38889694 -39.05855942 68.86885834
-18.75529671 -38.79767990 73.82521057
-18.61841774 -40.45439148 69.12043762
-18.25451088 -40.07569885 79.18524933
-18.57723427 -15.30475807 53.92469025
-15.90786171 -38.26528168 58.19558716
-18.52362442 -42.61483765 81.16135406
-16.76278114 -35.62631226 59.80100632
-18.90252113 -32.73688507 77.35109711
-16.71527863 -60.55625916 68.73377991
-16.13436508 -27.81887054 57.35231018
-17.90549660 -37.40692139 79.16078186
-16.54077530 -58.07250977 83.95637512
-15.62400723 -38.52845001 58.66424561
-17.52026939 -58.76185226 73.35153961
-15.80348206 -59.77141190 85.18500519
-17.61272240 -49.30667114 87.03903961
-16.17635345 -60.76879120 76.13656616
-14.60770702 -33.34044266 55.47292328
-15.08116531 -62.03645325 64.10484314
-15.25135231 -35.02109528 57.20420456
-15.94387722 -32.38603973 85.90319061
-15.89170074 -61.81950378 75.69468689
-16.63854599 -47.49327087 88.94989014
-14.14602947 -63.88291168 70.96053314
-15.71940041 -20.01889992 52.17720032
-14.66751480 -24.69643021 52.90869522
-13.07573795 -63.15295029 62.07187653
-14.63076591 -63.81446075 77.11367035
-15.95223427 -38.62836838 84.32453918
-13.53351879 -40.64089966 89.91535950
-14.01144409 -18.48884773 49.46263504
-12.18325996 -35.58372498 52.16311646
-12.82033539 -25.73954201 49.67187881
-13.80183697 -35.50616837 89.17192078
-12.42795849 -31.58609390 49.91913605
-15.60617828 -48.06207275 91.09660339
-12.48063087 -18.44609833 47.18312454
-14.79410267 -28.19172096 88.25493622
-11.11053181 -65.02307129 66.44776154
-11.32973671 -32.80063248 48.66533661
-13.63049698 -52.78948975 93.62984467
-10.85536098 -29.04825020 47.81292343
-10.59534550 -67.01696014 72.58397675
-12.81702042 -30.11945534 90.93839264
-10.90441513 -22.49624252 46.92120361
-12.04481125 -42.64830399 92.96499634
-9.04560661 -34.87551498 46.29565048
-11.67666721 -32.72420883 91.86068726
-13.19439411 -48.50269699 94.12815094
-11.07500362 -51.30290222 96.34194183
-11.18883419 -47.51677704 95.65148163
-9.49312115 -66.83570099 69.51589203
-10.36931419 -16.18271255 45.69545364
-11.00608349 -38.51061249 92.61125946
-8.94483662 -20.36508942 45.73208237
-8.47530079 -25.50665092 46.12125015
-9.86555958 -43.01143265 94.87902069
-6.80082273 -31.46325874 45.35509109
-8.63386917 -68.44669342 71.93147278
-9.28830242 -29.96632576 93.24179077
-9.18344593 -36.93064117 93.62809753
-5.01070833 -65.79522705 64.38298035
-5.38946772 -64.56313324 59.73708344
-7.53319216 -68.48718262 70.30982971
-7.99932718 -39.79187393 95.07410431
-5.81663799 -19.52102661 44.95511246
-8.73838902 -58.00770187 100.71734619
-5.83513832 -37.21685028 45.69515228
-2.73122311 -51.32450104 47.67688370
-1.49478412 -56.05641556 49.34535980
-2.60041547 -39.95396042 44.94052505
-6.35523319 -24.84895706 94.01161957
-4.31224632 -47.21118546 47.97579193
-6.47490454 -36.09033966 94.42961884
-2.43742394 -36.01956940 43.81669235
-5.67991877 -69.72719574 70.74306488
-3.45609641 -21.72154999 44.59876251
-5.63503599 -42.63128281 96.12743378
-1.28684330 -59.97217941 52.69788361
-0.00489169 -49.16477585 46.46488571
-4.57912874 -47.42154312 98.32507324
-0.65826261 -44.08398438 44.96475601
-3.68290782 -65.71804047 64.31609344
0.33447877 -46.71656418 45.51556015
-3.81355333 -62.40269089 56.07950974
0.38156486 -66.33237457 65.55950928
-0.80786920 -63.82741547 58.34220123
-0.99103284 -27.58196640 43.64932251
-0.47345328 -41.70991516 96.38913727
-3.64855027 -70.96207428 75.33399963
1.05137873 -39.62124252 43.95716095
1.80530119 -55.33371735 49.76347351
0.83860379 -59.43123627 53.38690567
-3.75260043 -62.08096313 104.20343781
1.92679226 -36.65769577 43.94928360
0.93304306 -63.84608459 59.70534897
1.99782860 -43.60119629 45.13410187
0.38303605 -17.59220505 44.23215485
2.56225848 -59.58427811 53.71693802
2.84569955 -64.80960846 62.74071121
0.81926864 -68.29421997 69.85202026
-6.34028006 -29.88541794 93.93382263
0.51705325 -37.37049866 95.18651581
1.13984287 -27.26478767 43.46546555
3.50635028 -46.76143265 45.76566315
3.10776138 -48.97142410 46.81591034
2.34739423 -63.85707474 58.85440445
2.23179269 -51.72093964 48.06789780
2.96730804 -39.51212692 44.05760574
3.24331880 -27.49916267 43.81884384
5.59564209 -53.41115570 49.64719391
-0.66852748 -45.61388397 98.05757904
4.14254427 -62.68628311 57.28320313
6.62837505 -63.81122208 60.68592834
4.63955498 -58.03310013 52.24930191
5.02228308 -46.20207214 47.26792908
6.23005724 -36.18563843 44.45261002
4.41007423 -44.36210632 45.33025742
4.89539957 -70.78274536 72.57799530
5.62893486 -41.92105484 45.38667297
3.64019179 -62.63199234 104.16743469
3.68514919 -46.92512131 98.13224792
6.22715664 -50.07184601 48.89230728
7.72508526 -41.77680206 49.69435501
6.83121061 -40.26719284 45.86323929
6.54088831 -41.23562241 47.60503387
4.59149647 -43.14708710 96.58938599
5.79855919 -65.88390350 65.32231140
5.06188965 -22.73714447 44.82839584
8.28215408 -45.64921188 49.25030899
5.61157417 -13.58443451 44.50734711
6.91726971 -18.00524139 45.07837677
4.79299307 -39.75246048 95.96333313
7.75766230 -50.34811783 49.18022537
4.23800278 -36.42763519 95.08048248
10.16497517 -34.54790497 51.88129807
6.25322199 -70.44655609 72.41560364
8.35431290 -37.89048767 46.36615372
7.95037603 -38.81887817 46.74459457
4.19755125 -31.57037544 94.51332092
5.84088850 -50.04747391 98.38172150
9.37483215 -35.02221298 46.07973480
9.33446503 -63.12638474 61.91083908
9.46345329 -36.66530991 46.55770111
7.19163036 -67.12535858 68.22621155
9.01438427 -22.96222305 46.05760574
6.41208220 -37.00445557 94.64680481
7.36982822 -70.35781097 73.50135040
7.88230419 -47.42496872 96.96445465
9.17823029 -14.62979031 45.15867615
7.45320654 -42.61099243 95.56097412
8.55947208 -51.45239639 97.22657013
8.44025993 -67.80953217 70.78913879
11.88387871 -34.91681290 47.34593582
10.13820553 -19.28650665 45.98651505
9.10090923 -42.63056564 94.44335938
11.70891285 -27.90811539 47.71490097
8.16373634 -38.57402039 93.94140625
10.27327251 -67.20149994 73.11161804
10.41615677 -52.53259277 95.80494690
11.49517727 -23.83912468 47.23201370
11.54315948 -15.55556011 46.13399506
10.12185574 -48.36941910 95.69432068
11.05283928 -39.10755920 91.22589111
12.40699959 -31.97730064 48.19530106
12.55339432 -21.54376602 47.60686874
14.47627258 -61.48303223 63.05783081
12.38573647 -64.98799896 69.12482452
11.17594051 -31.59327507 91.79531097
13.34939957 -32.53789902 50.62469864
13.53140736 -32.54558563 49.60972595
13.48914528 -29.21385765 49.46337509
14.34254837 -30.39452171 54.63630295
11.29378128 -41.90584946 91.87551880
13.62399292 -22.10249138 48.67260742
14.36900043 -32.48400116 51.45159912
14.46471310 -30.07264328 50.82131958
12.90201092 -47.87575531 93.02308655
14.82283306 -63.29356766 72.14249420
15.28131771 -30.12275314 58.41181946
11.77344418 -34.73014832 90.77285767
14.96790028 -30.99060059 54.08190155
14.69659233 -18.53344345 49.91052246
15.72508812 -30.12107658 58.09348679
15.33626366 -26.89585495 53.24463272
14.19962692 -38.61836624 86.38361359
15.58149719 -30.85050964 54.71345520
14.08531952 -46.99855804 91.06482697
16.11356354 -60.25177765 63.35211563
16.85600471 -30.80641747 62.10828018
18.08785820 -43.40397644 82.73194885
16.10471344 -28.86593628 55.60297012
14.82446671 -48.86061859 90.39541626
16.35479164 -24.98133087 54.95972443
17.39632034 -37.35270691 80.38451385
16.48649979 -20.00650024 52.79940033
17.14523125 -26.12390137 57.51115036
16.86230659 -29.32744408 58.01178741
17.91098595 -58.73733902 67.07022858
14.41141605 -59.91101837 86.25631714
19.91454124 -55.45100403 72.57123566
17.10847092 -39.46672440 81.53542328
17.95674133 -48.43380356 84.81312561
18.25064278 -32.07192993 79.54169464
18.10031509 -29.88604355 64.76244354
14.55322552 -54.22906876 89.43856049
18.84429550 -33.72142029 67.52877808
17.99295616 -52.78286743 83.28597260
19.24903870 -55.98534775 75.19719696
18.86421967 -15.21049023 54.21571350
18.87680435 -25.84055138 62.91212463
18.86142921 -53.32289124 79.85484314
18.42573547 -41.46220016 79.89611053
18.66591835 -39.22496033 73.02240753
20.50120163 -19.36952972 60.89722443
19.56967545 -35.36733246 71.60038757
18.93373108 -40.15513229 72.33383179
18.40113258 -38.79674530 76.44689941
19.97777367 -40.28955460 71.41963959
19.84464264 -21.18571663 78.25639343
19.40736771 -32.89872360 75.57561493
20.02062607 -28.58848572 68.93201447
19.40648651 -28.84522438 77.17128754
19.49487877 -43.44331360 79.60358429
20.16067886 -42.52573776 74.80006409
20.28167152 -29.75338364 72.64562988
20.77713013 -22.53131104 67.77246094
20.68195343 -50.05566406 77.54412842
20.91772461 -24.69543648 70.53555298
20.34426880 -26.16685295 75.00168610
21.52395821 -19.10087967 72.45108795
21.47406197 -16.82989120 63.07111740
-16.33526611 -54.56606293 87.81808472
-14.75377178 -61.71619034 89.56124115
-15.04913044 -53.45920181 91.14954376
-14.90304947 -65.06990051 90.20355988
-14.79233170 -67.07882690 90.37175751
-14.07427979 -63.88145447 93.23551941
-13.87778378 -67.40569305 96.30149841
-13.48053741 -70.46975708 98.32656860
-13.85725689 -61.48857117 93.11237335
-12.90639782 -66.50552368 80.65537262
-13.77609253 -58.10943985 93.91810608
-12.68767738 -71.31070709 90.60891724
-14.77883434 -65.13620758 83.90760803
-13.08160019 -65.04049683 96.62969971
-11.16860867 -58.02354813 98.39965057
-11.76607800 -66.21765900 99.86077118
-11.23574638 -61.50529480 98.20687866
-11.50866318 -71.37718201 86.50147247
-10.65071392 -68.04790497 78.00819397
-11.45019627 -72.92178345 87.09317017
-11.05499268 -73.17100525 82.64916992
-9.57295513 -64.53181458 102.00229645
-10.07463360 -69.07740784 77.19940948
-10.51991177 -75.82258606 83.08204651
-9.50147724 -72.31612396 78.03503418
-8.03850651 -62.52439880 102.57241058
-8.62048531 -73.89005280 78.73764801
-8.88436604 -76.81101227 82.00204468
-8.31502056 -71.74594116 75.36578369
-6.90728903 -72.10459137 75.30100250
-7.10130167 -75.08319855 79.72630310
-7.48638296 -47.60147095 97.47199249
-6.02385521 -61.55848694 103.46028900
-4.68414688 -73.30436707 78.22899628
-5.07972193 -51.94177628 100.04234314
-3.58257151 -76.18904114 79.50653839
-0.48796901 -70.46064758 73.99146271
-2.14317465 -77.27156830 79.89958954
0.10867056 -64.03480530 104.81750488
1.72912288 -75.56453705 79.23795319
1.99119270 -71.00399780 75.30034637
2.11147380 -50.25888824 99.73096466
3.95450854 -67.11913300 106.10074615
2.78805351 -73.25601959 78.24102783
4.05338812 -78.64905548 82.50580597
4.79264736 -73.63133240 78.29044342
5.73285866 -74.72026062 79.60102844
5.24511862 -61.11190796 103.10231018
5.94002104 -79.28239441 83.33287048
6.95052385 -62.73804092 102.59609985
6.61502028 -73.29998779 78.31251526
7.25484133 -58.72790909 101.10150146
7.40646696 -72.58082581 78.26907349
7.60046053 -75.75843048 81.56098175
9.69177628 -62.09458542 98.89948273
8.44022369 -68.96883392 74.75014496
8.61810112 -71.51783752 80.12959290
9.27946758 -58.68276978 99.20413971
9.41125584 -65.47924805 100.81700134
8.80193996 -69.72047424 80.69385529
8.77879238 -75.18846130 83.03778076
9.53780365 -67.89559174 77.83560181
10.12558270 -72.71839142 90.31341553
10.13853455 -76.00303650 92.41316986
10.06179237 -77.12004089 87.77027893
11.70969009 -58.78806305 95.41329956
12.44591141 -53.36179733 93.28014374
11.35445881 -66.20221710 97.66658020
12.30476284 -66.60539246 83.77803040
12.09277916 -62.90828705 94.09244537
13.30000019 -64.68689728 79.46675110
12.76905251 -66.64724731 93.71681976
14.09218407 -56.53708649 90.00762939
12.55477524 -69.70015717 95.47689819
13.00637913 -62.99369812 91.04133606
13.22490025 -65.74197388 90.41396332
13.40299606 -65.22186279 86.23521423
15.35273743 -61.93926620 77.19969177
13.87766075 -62.18136597 85.30358887
15.91549683 -60.16653061 77.73545837
-13.73666096 -70.33142090 94.92189026
-12.55898190 -82.94333649 95.82319641
-12.48891640 -82.35270691 98.90213013
-12.21502018 -81.85810852 100.72450256
-11.27687836 -81.46723938 104.14883423
-12.39146042 -78.96646881 99.38648224
-12.36567211 -69.28011322 100.65460205
-12.24186802 -75.83553314 98.13739014
-11.98332977 -76.48068237 96.03508759
-11.97060490 -72.31739044 101.81219482
-11.55632591 -76.57582092 101.44612885
-11.87142563 -81.74047089 93.23295593
-11.26731873 -79.94818115 94.67638397
-10.16664982 -79.95847321 105.40295410
-10.78086376 -81.42088318 89.27812195
-9.86158657 -82.72217560 108.24369812
-11.30345535 -79.06594849 92.48337555
-11.57634830 -77.80137634 88.47977448
-10.50682926 -79.94849396 87.34149933
-9.20605755 -80.82182312 107.24895477
-9.37132645 -75.11074829 106.58010101
-8.40435028 -76.19419861 107.72944641
-7.31703377 -80.30331421 84.01947784
-5.98156357 -81.14029694 110.37576294
-6.09616089 -66.32453918 105.56522369
-6.41730213 -77.08646393 108.83599091
-3.29552317 -76.23556519 110.03767395
-5.51095200 -79.32115173 82.86688995
-4.11458349 -66.49890137 106.18663788
-3.91775227 -83.52834320 111.97697449
0.12938339 -82.86440277 112.04254913
-0.04702184 -75.52359772 109.60089874
-1.42352128 -82.94665527 82.24501038
3.84684086 -76.94137573 110.05815125
2.68543816 -74.81465912 109.50509644
1.85968673 -83.25744629 82.57496643
4.64286852 -82.96555328 111.71437836
4.47681808 -72.93380737 108.05921936
6.48415375 -80.48706055 109.95951843
6.36340618 -81.55068970 84.52052307
8.23173809 -84.04684448 110.51726532
6.73033714 -70.82603455 105.86511993
7.12395144 -77.79235840 108.30665588
8.18488121 -75.44603729 107.17243958
9.44128227 -79.84645081 106.62879181
9.25348854 -71.76498413 103.90589142
10.38769436 -81.68388367 107.55789185
9.28973484 -79.32787323 86.99299622
9.59939861 -74.81665802 105.00842285
10.30345631 -79.35959625 104.83123779
10.05842972 -79.86811066 89.36334229
10.47649193 -72.54086304 102.02417755
11.58329201 -80.61131287 103.70692444
10.41885662 -78.70944977 93.72444916
11.13390064 -75.56008911 98.97987366
11.27317715 -80.55917358 92.44607544
10.91730785 -74.30478668 100.31651306
11.17412663 -73.90647125 95.65232086
11.87269020 -79.97486877 97.31507874
10.95014381 -76.14250946 95.71273804
11.94886684 -80.45795441 100.47718811
11.87674141 -69.01641083 98.26451874
11.75788307 -77.93634796 98.48178864
13.23508644 -82.81299591 93.05234528
12.01972103 -71.26854706 94.92914581
11.93995953 -70.87528992 98.39888000
12.36650276 -81.82691193 96.10903168
-13.90503883 -85.97059631 101.56623077
-13.86866379 -88.19187164 101.69168091
-12.39363003 -82.64033508 104.28985596
-13.57867146 -84.26721954 93.95634460
-12.62448502 -90.88018036 101.58334351
-12.91224289 -86.97725677 97.85641479
-11.27306938 -94.08881378 97.99525452
-12.14473343 -91.62113190 101.24709320
-12.66365147 -90.18389893 98.84691620
-11.74051666 -93.51665497 92.35204315
-11.39558792 -94.09120178 90.25326538
-11.46676636 -84.17685699 88.24488068
-11.56749249 -92.89313507 101.09558105
-11.22078609 -94.66085815 92.30420685
-11.70611668 -90.35773468 96.63914490
-12.09610558 -89.87192535 90.16291809
-10.84364510 -95.00053406 100.64013672
-10.92129040 -94.37982941 101.91577911
-9.38306236 -99.25368500 90.24157715
-10.13105106 -96.18178558 96.40511322
-10.13973427 -97.45848846 101.13330078
-11.15325165 -92.66224670 88.78626251
-10.02662754 -96.75587463 92.82351685
-10.01038837 -94.22746277 104.14646912
-10.56822205 -93.39012146 95.93939209
-9.30912495 -95.63816833 86.54684448
-10.34563923 -89.78209686 86.49265289
-9.00831699 -96.66651917 104.71616364
-9.04982090 -97.86479187 94.14165497
-10.24799538 -94.15762329 87.69843292
-8.07986736 -100.81486511 102.52550507
-9.38452339 -81.99849701 86.79319763
-9.00011158 -94.67436218 106.75336456
-8.79802132 -100.12472534 97.77271271
-9.43331051 -98.38730621 99.27360535
-7.88786221 -102.02023315 86.37335968
-9.55717087 -91.99117279 85.73864746
-8.26102829 -99.69781494 98.42800140
-7.41294861 -84.25274658 110.74993134
-8.68176746 -98.52240753 99.31949615
-8.66362000 -98.32070923 98.28887939
-9.62139702 -93.83394623 86.43650818
-8.43381596 -98.94314575 100.47587585
-9.89056110 -90.82312012 86.12625122
-9.08967495 -94.09939575 84.01155090
-8.51510811 -101.21419525 99.75975037
-8.90800953 -94.21100616 107.45546722
-7.66979885 -100.31329346 93.37032318
-7.69594622 -99.30204010 101.39463806
-7.50749111 -96.82685089 106.53895569
-8.21730423 -98.17870331 97.34218597
-8.21124458 -97.60366058 83.09513092
-8.21952820 -102.62094879 81.53564453
-7.97611427 -87.14392853 84.23822784
-8.35538578 -96.99800110 82.26197052
-8.42487526 -91.92545319 82.88822937
-7.03518105 -103.99592590 88.31931305
-6.13730526 -103.69817352 91.45549774
-6.81265974 -102.65736389 100.65613556
-7.56477118 -98.07151794 96.76351166
-7.34605169 -100.53102875 78.85957336
-6.97732401 -101.02952576 94.51139069
-7.63194513 -103.77297211 80.23075867
-7.11836624 -105.84635925 84.68472290
-6.78838921 -98.07405090 96.08912659
-6.81439018 -99.34950256 101.64700317
-5.75814772 -102.70569611 99.71914673
-6.53205824 -100.93482208 99.91771698
-7.25578928 -96.10804749 84.21635437
-5.78028679 -100.44942474 97.41676331
-7.55858231 -82.52122498 85.02132416
-5.67624950 -108.38307190 81.62846375
-5.92385817 -107.78540802 85.99015045
-7.17578840 -99.35334778 77.22209167
-6.92678261 -87.61756897 111.39041901
-6.67014551 -98.19409180 77.39199829
-5.74679089 -91.99214172 110.72281647
-6.19461584 -100.56807709 77.20970154
-5.17855597 -102.77269745 103.44111633
-4.14804888 -101.91573334 96.62732697
-4.71715450 -97.04866028 108.25768280
-5.69485092 -105.59117889 78.26483154
-6.39215469 -94.61406708 80.34001160
-6.79775858 -98.50041962 83.69757843
-4.98921251 -99.63648224 101.82604980
-6.74829435 -99.30718994 81.32201385
-5.94156981 -99.44699860 101.77700043
-7.66554403 -95.23187256 80.72022247
-6.15915632 -93.60366821 109.68432617
-5.42312527 -100.57929993 83.62368774
-5.65752172 -94.39036560 82.62145233
-5.71355629 -96.17384338 82.36830139
-5.88762856 -98.04927826 96.26474762
-6.70450735 -89.17551422 82.78910828
-5.88745213 -101.78971863 82.53091431
-5.50792837 -104.74738312 80.62506104
-4.10543108 -108.85413361 87.76863861
-4.45150948 -107.75437164 78.86594391
-3.60559988 -110.56126404 84.53008270
-5.37523317 -96.52111053 83.07387543
-3.32496214 -104.82955170 98.52592468
-5.03310919 -98.13330841 96.39339447
-5.38378191 -101.33963776 78.40561676
-4.18999052 -99.51207733 101.32276154
-5.91145229 -84.28961182 83.91344452
-5.34220552 -104.33959198 77.89340973
-4.20367002 -100.39435577 98.16079712
-4.79034376 -103.18272400 75.88872528
-4.36135674 -106.89823914 90.18608093
-5.09607029 -97.36458588 79.81867981
-3.87115002 -108.16287231 81.28720093
-4.91074324 -99.53425598 78.66364288
-4.07604837 -98.29335785 96.75688934
-4.34414291 -105.21678162 76.00175476
-3.67786813 -107.34003448 78.43669128
-4.28227854 -106.98610687 82.38144684
-4.25614071 -101.51822662 98.40853119
-4.05361032 -100.72970581 79.10755157
-0.89818597 -89.67108154 113.02791595
-5.04861450 -95.51261902 84.09636688
-4.47403193 -101.10823059 82.25556946
-1.47595453 -87.32469940 112.97731018
-3.73678541 -105.36937714 81.92990875
-5.54808712 -100.28472137 76.91631317
-4.22884989 -97.91078949 81.01157379
-3.20177007 -98.60630035 97.90263367
-2.56748414 -101.67543030 104.69706726
-4.22592592 -102.72218323 75.29624176
-3.32080460 -103.84386444 81.87664032
-3.47714400 -104.35823822 95.05924988
-3.39782357 -99.31327820 100.45708466
-3.65148664 -96.29174042 80.71898651
-3.43120074 -85.83524323 83.29689789
-3.39263034 -99.13961792 75.96627045
-2.65205574 -110.61197662 86.27889252
-3.77317619 -100.96311188 81.90932465
-2.86996746 -109.43600464 87.16764832
-4.29935360 -96.50582123 82.45027161
-3.58685732 -101.57937622 80.63529968
-2.07015562 -110.83681488 82.13061523
-4.26003456 -93.70133972 83.89151764
-4.34188461 -97.11323547 81.30663300
-3.69050193 -100.49594879 81.08988953
-3.86480498 -98.00200653 81.58072662
-2.12712669 -109.23939514 91.99357605
-4.02934074 -94.74921417 81.62886810
-1.75046730 -112.02729034 86.22153473
-2.47990465 -107.48262787 78.90486908
-4.17652798 -105.95866394 78.99106598
-3.25371075 -103.20819855 80.20195007
-3.14564204 -98.92440033 99.31999969
-2.93069363 -91.69099426 85.25026703
-3.15886116 -101.76797485 83.84422302
-3.08238077 -104.65988159 79.71967316
-5.13691616 -89.03586578 82.76111603
-3.00083995 -100.53048706 80.54161835
-3.50459409 -101.61880493 81.35507965
-3.03181100 -105.94097137 82.09536743
-1.91145217 -106.78108215 95.47173309
-2.50314832 -106.38883972 78.30754852
-3.67562771 -97.20168304 82.87216187
-2.23982239 -104.74666595 101.10092926
0.70749956 -92.15251923 112.40148926
-3.23357797 -107.18021393 82.17987061
-2.29421592 -108.21817780 87.16487885
0.97376406 -94.64270782 79.47864532
-2.68116093 -108.88259888 82.38474274
-1.87399042 -105.87629700 83.64398193
-2.92320800 -96.21996307 82.57374573
-1.28264177 -109.84954834 81.07599640
-2.77192068 -96.95511627 80.51083374
-0.87747836 -105.62516022 98.18643951
-3.74692631 -83.24786377 83.00238800
-1.76944792 -109.33647156 88.18020630
-1.66427743 -107.60335541 82.04305267
-2.74970055 -95.11701202 85.17989349
-2.69446063 -98.39805603 83.41112518
-1.71595001 -109.26557922 81.93898773
-2.51252365 -101.35539246 82.97185516
-0.59457231 -111.12598419 85.08050537
-2.51138234 -92.98159027 82.91187286
-2.12679338 -90.21827698 83.98789978
-0.85553879 -110.38775635 91.35795593
-1.30379021 -108.08141327 79.38136292
-1.86110783 -97.73719788 84.91931152
-1.65415883 -108.26103210 82.02971649
-1.64260221 -112.98039246 86.89185333
-1.61054945 -106.95793152 80.17253876
-1.64924395 -103.31938171 81.27828979
0.16709334 -108.67703247 86.00423431
-2.34149694 -103.42767334 73.85480499
-1.67385817 -106.70059967 79.32243347
-0.01156080 -110.05198669 86.76140594
-0.86041695 -100.36676788 80.43533325
-1.23055589 -100.98021698 82.02943420
-1.58003485 -101.76940918 85.14203644
-0.77095014 -108.10655975 82.43758392
-0.71652323 -93.79805756 82.18552399
-0.92821008 -108.34400940 80.73411560
1.62571013 -98.94679260 107.28089142
-0.62616646 -106.55480194 79.49054718
-1.15042937 -97.77230835 81.69509125
-1.82307410 -104.30195618 79.04988861
-0.78901684 -100.11122131 81.73143768
0.27334446 -99.04448700 82.90636444
0.54945588 -106.93249512 78.91567993
-0.11201745 -89.88467407 85.02061462
-0.19732392 -113.06790161 84.91322327
0.53442782 -106.46781158 74.89532471
0.09851217 -107.99635315 80.24393463
-0.66201043 -103.12265778 79.94357300
0.65186507 -105.89936829 79.82309723
1.26057875 -108.16247559 82.71749878
1.21907091 -103.88185120 101.52505493
-0.09164963 -92.47686005 82.58823395
2.12823105 -113.14501953 84.94396973
0.56037104 -110.14204407 79.99230194
-0.31256732 -89.32856750 83.61372375
0.89942694 -111.34649658 82.44729614
2.03598523 -105.79843903 79.29150391
0.24029991 -108.45515442 80.50784302
-2.76756048 -99.16499329 75.41425323
2.55745482 -107.92190552 79.24565125
2.92356634 -106.42819977 80.08653259
0.53878933 -109.10189819 80.56474304
5.01368904 -96.14763641 78.16817474
-0.04367270 -90.07743835 81.58705139
0.65442449 -104.60630035 84.90844727
-0.39947170 -85.83649445 82.75354004
0.42454553 -99.63125610 85.82445526
0.24995671 -96.63268280 85.29314423
0.02353030 -91.93913269 85.86614990
0.85900372 -96.54562378 109.59648895
2.58088207 -87.84759521 113.00563049
2.62605548 -104.26522827 78.84207916
3.20930767 -110.06867218 91.39873505
2.17421079 -90.18370056 112.87997437
1.30748141 -99.92707062 81.54609680
1.61619258 -108.92825317 81.38409424
1.63496685 -108.60057831 85.95534515
1.94300759 -107.72181702 79.91366577
0.41455022 -103.45298767 80.49713135
2.71693039 -100.75819397 82.12979126
2.40678930 -105.46239471 74.54116058
1.59293199 -110.02170563 79.85838318
2.39997435 -103.01564789 73.71163177
0.14728707 -101.42044067 82.50328827
1.56877255 -100.20046234 80.28942871
1.77312684 -102.26111603 73.78779602
3.46425128 -104.31770325 101.08090210
1.96341574 -109.91620636 86.68617249
2.21199822 -108.22316742 80.54854584
2.37109971 -92.53211975 82.93795776
3.09376240 -107.94441986 82.10090637
4.43097639 -110.59722137 83.12805939
3.10694790 -113.08264160 86.65264130
2.52452326 -105.43597412 98.20506287
2.56256604 -103.12323761 81.13546753
1.87707222 -89.98870850 83.81733704
1.54593158 -97.61778259 81.65467834
3.28854322 -107.64133453 79.39930725
2.58402944 -110.95333099 84.97885132
3.08226752 -101.15148926 82.80343628
3.21213078 -105.60964966 83.47452545
4.14747381 -84.91642761 83.25256348
2.46156883 -109.92597961 81.15863800
1.97101474 -95.07575226 82.24910736
3.01043439 -106.26406860 79.16378021
2.88821387 -91.38653564 85.05650330
4.63612986 -88.52227783 82.44466400
2.59129047 -101.55119324 85.00306702
2.43521357 -97.51234436 84.77613831
3.59528875 -109.12095642 81.63008118
3.76963043 -109.04632568 87.99585724
2.94789767 -108.04081726 82.14997101
3.06272650 -104.08030701 74.07683563
2.38383031 -103.66682434 73.80876160
4.92023182 -95.68532562 109.14995575
3.10209990 -98.27066040 83.28589630
2.57471585 -97.09384918 80.28639984
3.60706520 -107.03710175 78.66802216
3.06122851 -94.81311035 84.98629761
4.26464844 -105.55932617 81.85227203
3.96227074 -94.28491974 81.45365906
3.48266602 -95.95719147 80.57357788
3.60467172 -100.19052124 80.34040070
3.24309564 -95.86242676 82.11415863
5.31917953 -107.58302307 78.70613098
4.79875469 -106.90521240 78.21329498
4.36803532 -108.90042877 91.77463531
4.50001669 -111.85582733 86.54376221
5.64948654 -108.91841888 80.86382294
5.73500299 -104.08647919 100.62867737
5.20152283 -107.33752441 80.44393158
4.66853762 -110.22321320 86.10975647
4.10680723 -107.88350677 86.95187378
4.25197506 -108.44349670 82.06780243
3.53528357 -106.07271576 78.10625458
4.78442049 -109.01990509 86.93298340
5.43677902 -104.35717773 98.08028412
4.07174873 -101.38832855 83.60340118
6.29791260 -105.02975464 77.97209167
4.12834263 -106.46475220 95.27136230
4.22962093 -97.57845306 81.31118011
4.32685280 -93.25214386 83.60550690
4.81268167 -107.53783417 82.14588165
4.07435560 -102.82501221 79.95772552
4.02366114 -104.28794861 79.48294067
4.31827307 -103.44445038 81.62218475
4.23421335 -101.21407318 81.09728241
5.43283987 -107.58695221 81.92227936
3.97345638 -106.37017059 81.73197937
4.46908712 -100.53202820 81.63470459
4.89369440 -104.91798401 81.64243317
4.78966713 -98.50868988 99.05496216
4.26395226 -101.16853333 80.37400055
4.04412508 -96.79787445 82.61504364
4.50826359 -100.81278229 78.82411194
3.60167146 -82.88809967 83.27899933
4.59216356 -96.64579010 81.00909424
5.55306482 -104.42327118 78.53123474
4.56255531 -96.04217529 82.15514374
4.71769667 -98.19196320 97.63898468
6.10109234 -100.97618103 98.06370544
4.28404808 -100.07837677 80.82421112
5.15623999 -98.86335754 100.16864777
5.20266771 -100.60169220 81.93321991
4.54357195 -97.45185852 80.71940613
5.31174707 -94.97055817 83.75125122
5.83728266 -108.73950958 87.18360138
7.48227358 -91.28586578 110.28220367
6.42337799 -93.90789795 79.96547699
5.91693592 -101.38926697 96.29190826
5.47700310 -97.79341125 96.43923187
5.82964611 -99.70715332 76.53748322
5.40207958 -103.89282990 94.76374817
6.01881170 -98.97791290 100.98201752
7.32766914 -96.37568665 107.52651215
5.25224829 -96.72469330 79.57312012
5.31033564 -102.65399170 75.55230713
6.21994305 -106.35047913 89.82788849
5.23362827 -99.00341797 78.32585144
5.67314672 -95.94306183 82.70590210
6.20779085 -88.50000763 82.35903931
5.92603493 -95.56500244 81.98075867
7.01028347 -105.40541077 78.39575195
6.49975920 -104.11921692 80.22508240
5.70122623 -93.79611969 82.24316406
5.91532183 -99.86489105 97.82378387
6.38792562 -109.27960968 83.41651917
6.11905956 -103.58418274 77.43887329
6.18026304 -99.97195435 83.23730469
5.87416172 -100.75093079 78.03067780
7.29558992 -98.21405029 76.66174316
8.52039909 -99.65546417 96.87497711
7.84460306 -102.19041443 99.32111359
6.38558340 -97.53591156 96.01304626
6.51896191 -99.90282440 76.78627014
6.69474077 -101.13070679 82.11199951
8.39847088 -100.15396881 99.42037201
8.10025787 -97.29511261 95.59303284
6.85482788 -99.01722717 101.43122101
7.67651987 -89.00086975 110.91581726
6.97665358 -102.29654694 103.08235931
7.34524536 -107.15396118 81.04782867
7.91455698 -92.86861420 109.21367645
7.85191011 -102.62725830 91.25518799
7.20986176 -98.57688904 80.85714722
7.21622181 -97.36370087 95.82829285
7.33246374 -97.76108551 83.22694397
10.42121220 -99.11853790 97.13349915
7.65536022 -94.43027496 80.20989227
7.78122997 -98.72899628 101.31999969
8.16370583 -106.07757568 85.13995361
8.38826084 -103.24503326 88.20242310
8.25326729 -102.44413757 79.19056702
8.87107086 -101.86546326 100.61691284
8.66368389 -101.09492493 102.88166809
7.76727295 -99.74024963 78.35645294
8.60632706 -87.37099457 111.11139679
7.57206392 -95.33227539 83.72249603
7.35396862 -86.34188843 83.72765350
9.48182392 -98.40312958 100.82232666
8.49243164 -100.21963501 93.99545288
8.62856007 -98.54149628 101.13300323
9.22581959 -93.54781342 107.91142273
8.91597557 -97.20935059 96.21466064
8.62630081 -96.10955811 81.69635010
8.60167599 -96.72401428 82.53517151
8.20807171 -91.05518341 82.33421326
8.95872307 -101.13894653 85.81244659
9.61298084 -97.24588013 96.74822998
9.02081394 -101.94935608 80.84622955
9.02876759 -99.43935394 92.81369781
8.39353561 -81.07926178 86.20591736
10.46210194 -100.12377167 99.09275818
10.41112804 -98.21689606 89.58305359
10.43177414 -99.18170929 101.83425140
10.11683178 -97.97372437 99.85926819
10.37324810 -98.71309662 98.08457184
9.76317692 -89.79512787 85.47250366
10.94125843 -98.11070251 100.08670807
9.16893101 -93.14410400 83.40345764
10.13363361 -97.33724213 97.66165161
9.82978058 -92.81623840 85.78862000
10.77849197 -83.34599304 87.37685394
10.19411659 -96.85783386 93.50074768
10.96035480 -95.65791321 92.12451935
9.52760220 -90.99263000 85.10282898
10.23786545 -97.53128815 98.68883514
12.33824348 -83.04483032 108.19902039
10.72951794 -95.63397217 104.05910492
9.71531677 -94.64277649 85.91326904
10.65085506 -93.63303375 106.11010742
10.56897068 -93.06837463 87.00487518
11.69714451 -96.31617737 100.40583801
10.13001060 -88.71087646 85.81079865
11.35369396 -92.24325562 95.20922089
11.24161816 -95.06401062 95.69307709
12.20414066 -93.16930389 101.14430237
11.43272495 -93.10663605 103.43192291
11.38475037 -91.48345184 88.03725433
11.87056065 -92.87396240 89.47857666
12.10688877 -93.79943085 99.87547302
12.12850952 -88.60842896 89.38112640
12.21328068 -89.10630798 95.84242249
11.89206123 -93.45082092 91.53436279
12.29218864 -92.25929260 91.55160522
12.63578606 -91.62697601 100.28903961
13.15823078 -90.27845001 100.23030853
12.26192760 -92.85804749 97.21015930
14.55445385 -84.59413147 107.28268433
13.29274750 -88.82655334 97.98502350
14.75713921 -84.08917999 103.52493286
13.15659332 -85.62044525 96.98424530
13.99559021 -82.85746002 101.09464264
13.63323402 -89.49893951 100.75638580
13.71767044 -88.02478790 98.61128235
13.32773113 -85.50002289 93.51741791
15.05862808 -84.64657593 101.64766693
-11.82380009 -92.75240326 98.39150238
-11.63812923 -93.25405884 99.45869446
-11.54139996 -92.25250244 97.41709900
-11.24260044 -92.03330231 96.60530090
-11.68240643 -92.76280212 94.10615540
-12.01107693 -91.49701691 94.64321899
-11.29690933 -91.68269348 95.92514038
-11.74559975 -91.21559906 89.76840210
-11.89468193 -92.60086060 91.17372131
-11.35649967 -91.19899750 88.69960022
-10.90015221 -91.15895844 87.70343781
-12.09996223 -91.21817017 91.12211609
-12.04799557 -92.46074677 92.50691223
-17.56775665 -90.22313690 98.26625061
-16.70369911 -91.01370239 98.87640381
-16.60490036 -91.74279785 100.05699921
-17.41185951 -91.11658478 99.63887024
-16.34939957 -92.58249664 101.23699951
-16.50884247 -91.99536133 102.09651184
-17.46825600 -89.19850159 97.18171692
-16.46069908 -90.41819763 97.83239746
-17.44472313 -88.92337036 96.34736633
-16.27896118 -90.07366943 96.93702698
-16.90379333 -89.23892212 95.23709869
-16.47949982 -89.79149628 96.13520050
-17.73889923 -88.76349640 94.73940277
-17.84881973 -88.97579193 88.68717957
-16.73937225 -89.23226166 87.61581421
-17.37870026 -89.32779694 89.72480011
-17.04722404 -88.58162689 86.16442871
-15.53613091 -89.11975098 85.45587158
-15.86069965 -88.14450073 84.18810272
-16.53079987 -88.35130310 85.17630005
-16.22299957 -89.03990173 86.61959839
-15.97169971 -92.14969635 103.02300262
-16.19930077 -93.30460358 102.25000000
-17.62490082 -89.07050323 91.17559814
-18.15189934 -88.71929932 90.28949738
-17.66539955 -89.03029633 92.66079712
-18.25029945 -88.54550171 91.87650299
-17.41979980 -89.01879883 94.00820160
-18.09239960 -88.54489899 93.43090057
-12.35524368 -88.98719788 96.43557739
-12.45151997 -90.09960938 94.32122803
-12.02449989 -90.90730286 97.68440247
-12.27490044 -91.61740112 98.83850098
-12.45724010 -88.80506134 91.44284058
-10.94918346 -88.87548828 87.10072327
-7.62586021 -87.63819885 83.76895905
-11.60338306 -92.37198639 102.29737854
-12.03719997 -92.25270081 99.96530151
-17.60129929 -88.18019867 95.25869751
-18.27020073 -88.50180054 94.85859680
-17.94440079 -88.48149872 95.73100281
-17.31130028 -88.23829651 96.04389954
-17.81999969 -88.58229828 96.47129822
-17.18525505 -88.39756012 96.74127960
-18.05929947 -89.34889984 97.57350159
-18.13500023 -90.53990173 99.03330231
-17.82679939 -89.06050110 99.15470123
-16.87614250 -88.43642426 87.34272003
-17.54879951 -88.41470337 85.92340088
-17.90990067 -88.53610229 86.90599823
-18.20789909 -88.74330139 88.20899963
-17.29520035 -88.30210114 89.11730194
-16.10330009 -88.19390106 85.42469788
-16.49530029 -88.08280182 84.05380249
-17.05400085 -88.23480225 84.94319916
-16.45529938 -88.29350281 86.16210175
-14.58810043 -87.74330139 83.51239777
-14.38469982 -87.56780243 81.47599792
-15.56289959 -87.79599762 82.77940369
-15.47469997 -87.98729706 84.47129822
-12.99930000 -87.37090302 82.00330353
-18.45940018 -88.61309814 89.81999969
-17.55970001 -88.22669983 90.60669708
-18.59169960 -88.38749695 91.61679840
-17.73220062 -88.16770172 92.28569794
-18.51959991 -88.39730072 93.41190338
-17.75639915 -88.13469696 93.94170380
-16.26090050 -91.99859619 104.27700043
-17.02499962 -91.36830139 103.27100372
-16.82839966 -91.83660126 103.07099915
-16.09370041 -92.22669983 104.25299835
-17.50760078 -90.48159790 101.95700073
-17.42849922 -91.54869843 101.75099945
-14.34510231 -92.61023712 106.24895477
-17.93470001 -91.22139740 100.40899658
-17.82850075 -89.67800140 100.58899689
-14.02017689 -92.24657440 98.67279816
-12.88180161 -93.76311493 101.55612946
-13.22338963 -93.33979797 102.22596741
-12.53857231 -92.91590881 103.97667694
-11.65783215 -93.73679352 105.63476563
-14.46041203 -91.64085388 100.03312683
-13.96127224 -88.26916504 86.95325470
-13.09359455 -88.93056488 86.12535858
-14.73775768 -91.36279297 89.65404510
-13.62956238 -90.47183228 87.67723083
-14.76222229 -89.97388458 92.68614960
-15.02143955 -89.04739380 92.80577850
-14.88102245 -88.16829681 96.43389130
-14.55253887 -89.07350922 96.45258331
-14.28339958 -90.18180084 100.33000183
3.63930321 -103.74308014 74.39811707
5.34373856 -103.14785004 75.64819336
0.30168498 -104.86042023 73.99621582
2.41051793 -104.29886627 73.98590088
-0.13380119 -104.31290436 73.80117035
1.04647994 -104.15200043 73.78369904
1.64224041 -103.10714722 73.72898865
-0.04538226 -103.53739929 73.72631836
4.61205721 -102.07645416 74.77712250
-1.97216511 -104.03582764 73.88517761
-4.76549768 -103.67671204 75.98465729
-1.84566700 -104.52128601 74.12774658
-2.74184489 -104.30473328 74.33615875
-1.70203698 -103.17832184 73.84809875
2.36393237 -101.75057983 71.25477600
4.18598557 -101.71006775 72.15761566
4.48783493 -100.68960571 72.48318481
4.65838671 -101.48329926 72.61415100
4.34358025 -102.24428558 72.34389496
4.70226336 -102.06337738 72.69194794
5.13133001 -101.47200012 73.13909912
5.18452978 -102.05200195 73.20899963
1.25620973 -103.69712067 71.51245880
0.17464501 -103.95200348 71.53369904
2.90378976 -103.04460144 71.58231354
0.05934084 -103.33110809 71.36341858
1.58319139 -102.61853790 71.32284546
0.08461326 -102.43470764 71.30735779
1.60817003 -101.73400116 71.20249939
2.31694007 -102.59648895 71.27549744
3.80117011 -102.74106598 72.02505493
-2.24464869 -101.98976898 71.40917969
-4.38279390 -101.15399933 72.77857971
-3.99888515 -102.13730621 72.43122101
-4.46085978 -101.96015167 72.91815948
-4.08629417 -102.68621826 72.62403870
-4.43598366 -102.54084778 72.99494171
-4.89610004 -101.99600220 73.47309875
-4.88379002 -102.57900238 73.54429626
-0.92565560 -103.81103516 71.58517456
-2.62435627 -103.33364105 71.76633453
-1.52268481 -101.96183014 71.27359009
-1.41254997 -102.80400085 71.39649963
-2.10766912 -102.82673645 71.42298126
-3.51793599 -103.12479401 72.26889038
8.28771973 -94.14029694 108.16999817
11.27175999 -92.37172699 105.41797638
12.62341213 -90.94243622 103.78636169
12.88487625 -90.85704041 103.33103180
11.49123383 -91.93804169 106.01898956
-6.45549679 -94.72978973 108.79528809
-10.05428600 -93.06430054 105.96014404
-11.38580608 -92.20575714 104.59821320
-12.29279995 -90.75589752 104.02899933
-12.28251553 -91.46174622 103.87266541
-9.19001007 -92.91750336 109.05400085
-9.39960003 -92.68119812 109.65799713
-9.82641983 -92.82189941 108.92600250
-10.34570026 -92.78130341 108.72799683
-11.95513248 -91.33728027 105.13021851
-11.95909977 -91.68029785 104.46099854
-11.49384499 -92.02513885 105.60024261
-11.59862709 -91.92514038 106.65512848
-10.73924255 -92.71726990 108.29729462
-11.07988071 -92.37553406 106.52173615
-11.33409977 -92.33809662 107.33399963
-11.61699963 -89.46140289 104.34200287
-11.76020050 -90.48937988 104.88232422
-11.14284134 -90.21289825 105.88010406
-11.44580078 -91.59404755 106.87825012
-10.71374989 -91.10546112 107.28333282
-11.20673752 -92.03916168 107.58267212
-10.03255653 -91.35875702 108.27897644
-10.62409973 -92.28009796 108.46399689
-9.53382015 -91.38539886 108.57700348
-10.19919968 -92.30850220 108.79900360
-9.68406010 -92.30609894 108.88899994
13.28660011 -89.42050171 103.15200043
11.07999992 -91.60810089 108.98999786
10.82730007 -91.86910248 108.39700317
11.46319962 -91.70719910 108.22399902
11.44651127 -92.03441620 107.59532928
11.97809982 -91.61430359 107.97599792
13.08016682 -90.03698730 104.27626801
12.56822014 -90.94762421 105.34012604
12.90260410 -90.65127563 105.77267456
12.33693981 -91.51942444 107.49524689
11.84710026 -91.75955963 106.97177887
12.76700020 -91.08519745 106.46299744
12.78956318 -89.20487976 104.05831909
12.23456669 -89.03326416 105.13655090
12.73990726 -90.36886597 106.06417084
12.62954903 -90.81149292 106.77056885
11.91674519 -90.00678253 106.78844452
12.18809986 -91.08920288 107.68199921
11.40900040 -90.22589874 107.60700226
11.78479958 -91.15859985 108.06600189
10.97760010 -90.31120300 107.90299988
11.25879955 -91.20919800 108.20099640
12.19789982 -92.54329681 111.06199646
11.60744667 -91.39337158 111.97885132
12.62068748 -92.17839813 110.78156281
12.68719959 -91.50800323 111.45700073
16.10790062 -88.92189789 103.26699829
15.94200039 -89.35659790 103.86599731
16.29292107 -89.27886200 104.49987030
15.68725872 -89.43045807 104.48432922
16.35199928 -88.30780029 103.16200256
16.05949974 -88.30030060 102.69999695
14.27379322 -91.95635223 108.80804443
13.84686279 -91.99227905 109.50262451
13.59822941 -91.74060822 110.70807648
14.57985115 -91.44125366 109.20609283
15.16158009 -91.15764618 106.10572815
15.66576004 -90.65475464 106.29013062
15.91040039 -89.67199707 105.27500153
15.35503769 -90.95378876 107.24922180
14.67547607 -91.35009003 107.44132996
-10.16380024 -93.71219635 111.81500244
-10.61821079 -93.39037323 111.58665466
-9.62802601 -92.51312256 112.67632294
-10.68869972 -92.72740173 112.26499939
-15.20919991 -90.53540039 104.52100372
-15.23209381 -90.89695740 105.84282684
-14.94439983 -90.94619751 105.11699677
-14.67332268 -91.05843353 105.69364166
-15.27190018 -89.91709900 103.93299866
-15.52610016 -89.94830322 104.45400238
-12.43744087 -93.33411407 109.84784698
-12.74625206 -92.84729767 110.27105713
-11.57879543 -93.04406738 111.64730072
-11.95763111 -93.34448242 110.45460510
-13.72939682 -92.64659882 107.29537964
-14.25860023 -92.19112396 107.53463745
-14.72490025 -91.24299622 106.56400299
-13.07519054 -92.77312469 108.52902985
-13.80353451 -92.45024872 108.43912506
-15.88650036 -89.65820313 105.56600189
-15.70169830 -89.09060669 105.80505371
-15.49025249 -90.05186462 105.96018982
-15.43760014 -89.68170166 106.36100006
-12.55458546 -92.25321198 111.74687958
-12.82336903 -91.63178253 112.14360046
-11.87139988 -92.20829773 112.23799896
-14.00154591 -91.64114380 111.01310730
-13.57015228 -91.94234467 110.51795197
-15.28219986 -90.22250366 107.08000183
-15.11989975 -90.74549866 106.83000183
-15.07964802 -90.89459229 108.41394806
-14.83239365 -91.52364349 107.72903442
-14.39953518 -91.98064423 109.05770111
-14.79953671 -91.56917572 109.68996429
-14.77569962 -88.24559784 106.70700073
-14.61550045 -88.57730103 107.19599915
-15.35120010 -89.32820129 107.46700287
-15.16930008 -88.70970154 106.60700226
-14.43739700 -89.34388733 108.47082520
-15.25746727 -89.95954132 108.57645416
-14.20383358 -90.09840393 109.61699677
-15.11779976 -90.67965698 109.91430664
-14.41850853 -91.03073120 111.19168854
-13.47550011 -90.28959656 110.82599640
-13.08069992 -90.30339813 111.12899780
-14.03989983 -91.00440216 111.52899933
-12.55920029 -90.36879730 111.19100189
-13.57260036 -91.04419708 111.66000366
16.78140068 -87.98670197 104.16000366
16.46535301 -88.40794373 104.59528351
16.57019997 -87.44137573 104.41164398
16.43720055 -88.05039978 104.99299622
14.51649666 -90.85644531 110.69348907
14.78137779 -90.24781036 111.08435822
13.85449982 -90.87390137 111.28500366
15.82316494 -90.10047913 109.72812653
15.34346867 -90.45299530 109.33405304
16.28619957 -89.13700104 105.49299622
16.42749977 -88.59919739 105.72299957
16.19215202 -89.93478394 106.41633606
16.46107674 -89.28091431 107.07537079
15.97915840 -90.42241669 107.78115082
16.41191864 -89.97073364 108.36913300
15.68889999 -86.68289948 105.42900085
16.10969925 -87.10729980 105.27799988
16.45840073 -87.70010376 106.10399628
15.62500000 -87.02559662 105.93299866
16.56849480 -88.33108521 107.21123505
15.68335819 -87.79277039 107.21270752
16.67020226 -89.05240631 108.55142212
15.67645741 -88.56629944 108.37283325
16.17557716 -89.46096802 109.90658569
15.12709999 -88.81770325 109.66799927
15.84270000 -89.47019958 110.28900146
14.77719975 -88.86779785 110.01899719
15.40200043 -89.55419922 110.47799683
14.26500034 -88.98259735 110.15399933
-7.14969969 -88.37464142 83.15766144
-4.96986294 -87.20402527 83.00580597
-8.99551201 -91.30613708 84.28713226
-8.33848953 -90.78639984 83.45149994
-8.00513840 -89.54608154 83.40996552
-7.57964993 -90.40170288 82.83139801
-6.57549000 -90.10690308 82.46730042
-5.26656008 -89.92520142 82.40570068
-5.03855991 -88.00450134 82.89330292
-11.00349998 -86.83940125 78.93370056
-8.39782047 -86.08630371 79.29149628
-9.07534981 -86.47480011 78.01779938
-6.82496977 -85.79170227 78.86720276
-7.25668001 -86.09359741 77.49829865
-13.30360031 -87.54280090 81.22000122
-11.94349957 -88.32409668 80.60019684
-13.67455769 -88.97518158 83.01450348
-11.61289978 -87.17330170 79.68689728
-10.94390202 -87.85124969 79.50478363
-9.48151207 -86.78573608 78.40818787
-9.46829033 -87.39129639 78.53170013
-7.65668011 -86.51000214 77.57810211
-7.67920017 -87.00959778 78.06960297
-6.37341976 -86.84200287 77.89129639
-5.48286009 -86.12979889 77.00189972
-5.34322023 -85.77519989 77.24759674
-5.20064020 -85.55290222 78.82620239
-14.22830009 -93.26380157 106.31900024
-12.12709999 -93.92430115 109.19300079
-12.96497917 -93.40583801 107.84460449
-13.64500046 -93.01000214 106.94599915
-13.45069981 -93.77500153 107.26399994
-10.14050007 -94.58409882 107.88899994
-5.73508978 -88.09839630 80.02279663
-5.31585979 -87.39420319 80.02989960
-11.09233856 -89.68216705 83.28856659
-8.87631512 -87.66729736 82.11279297
-5.19413996 -86.39730072 80.74659729
-14.45540047 -88.98419952 84.00289917
-14.93200016 -87.95320129 82.89800262
-12.73480034 -87.10079956 80.08239746
-10.82610035 -86.50430298 80.42970276
-15.24479961 -92.68350220 105.27799988
-12.47738075 -87.95642090 96.96324921
-13.05599976 -89.46589661 99.50810242
-11.19661522 -87.93350983 87.42848969
-13.06528473 -87.78529358 93.36516571
-11.62216187 -86.91796112 87.94290924
-9.54014969 -86.57900238 85.74230194
-13.34505177 -86.89834595 94.43248749
-14.26393700 -87.59018707 97.55118561
-16.93790436 -87.90316010 96.41755676
-17.45775604 -88.66911316 98.75614929
-16.32751656 -88.26679230 88.01646423
-15.78724194 -88.27641296 86.87602997
-16.97456360 -87.76713562 91.95626831
-11.07837486 -87.08438110 85.45027924
-14.99804497 -88.11336517 85.87554932
-12.52552032 -87.50310516 83.69527435
-17.08743477 -88.13732910 90.47877502
-17.43242645 -88.06859589 93.52320862
-17.04430008 -87.89179993 94.76450348
-16.76670074 -87.98020172 95.81990051
-17.06959915 -87.88310242 95.60500336
-17.33799934 -87.96569824 94.76609802
-16.63430023 -88.06439972 97.05780029
-15.26881790 -87.78199005 86.94342804
-15.79580021 -87.78669739 88.03399658
-16.20759964 -87.75279999 89.08699799
-16.72019958 -88.21309662 89.09750366
-14.54376411 -87.65946198 86.01992798
-13.54950047 -87.47630310 85.09880066
-13.33119965 -87.75250244 84.35389709
-16.66550064 -87.72270203 90.45339966
-17.33489990 -88.07289886 92.00890350
-17.12630081 -87.79620361 93.45860291
3.30399108 -99.63576508 74.86000824
-3.15745139 -99.99411011 75.09987640
0.48795587 -99.49908447 72.94063568
3.14034009 -98.84435272 72.77983856
1.81444359 -98.77577972 74.18744659
2.80172992 -98.71019745 74.26090240
-1.39563978 -99.33049011 73.01770782
-3.21807790 -99.17707062 72.99162292
-1.87661624 -98.96296692 74.31669617
-2.79778004 -99.00309753 74.44740295
-10.12469959 -94.71649933 95.27559662
-10.26710033 -95.05239868 96.12799835
-10.53509998 -95.31400299 97.08260345
-10.60210037 -95.44090271 98.03949738
-10.55630016 -95.56269836 98.98159790
-10.96539974 -93.86650085 93.89530182
-10.41279984 -94.42099762 94.59400177
-11.47529984 -93.54730225 93.11440277
-9.24672318 -92.87850189 84.26301575
-7.71922016 -91.47730255 82.30519867
-6.75098991 -91.16850281 81.94779968
-11.41909409 -90.86291504 83.58654022
-12.27517986 -91.37316132 85.09661102
-13.96166706 -91.79821014 95.10513306
-13.94009972 -92.71250153 96.84069824
-13.81299973 -93.38970184 97.94249725
-13.71590042 -93.85119629 98.99559784
