# .PCD v.7 - Point Cloud Data file format
VERSION .7
FIELDS x y z
SIZE 4 4 4
TYPE F F F
COUNT 1 1 1
WIDTH 1221
HEIGHT 1
VIEWPOINT 0 0 0 1 0 0 0
POINTS 1221
DATA ascii
-25.65361404 -10.52451515 141.13208008
-25.34292030 100.09487152 163.05813599
-24.42528534 108.66709137 105.70156097
-25.05338478 -1.40488791 125.54005432
-25.61810112 1.16944933 142.50236511
-25.27213669 13.02180099 149.54954529
-25.95771980 36.72954941 153.44758606
-24.90043831 109.78102112 146.54676819
-25.59730530 107.82991028 91.53175354
-24.44580460 23.35089111 153.05354309
-25.79899979 -20.77079964 147.31900024
-25.78490067 -17.55109978 146.44500732
-25.78120041 98.32900238 79.05840302
-25.24512672 -29.07144356 144.36987305
-24.58561516 -32.80535889 112.97293091
-25.58279228 82.12120056 106.70484161
-25.10765266 103.24628448 -0.34500659
-25.40277481 -6.97853231 136.71826172
-24.67534447 109.40865326 94.17329407
-25.06503868 109.56695557 8.14052677
-24.63291550 -11.76753521 109.89147186
-24.64392090 109.28100586 69.39432526
-25.39595032 80.97941589 108.98638153
-24.76350975 -37.54914093 136.88781738
-24.37798500 111.44452667 124.32426453
-24.98044395 -24.36764145 108.45944977
-25.15838051 71.90682220 117.52622223
-24.98383713 27.42657089 109.86089325
-25.48740005 -4.05598879 137.05056763
-24.63529205 8.47553921 115.34120178
-24.21775055 -13.51180649 108.55588531
-25.30830765 -5.76750469 124.91774750
-24.86950874 107.17214966 8.53322887
-25.19897079 60.95694733 160.33842468
-25.31769943 95.35829926 167.14500427
-25.34993744 111.34201050 65.04444885
-24.05716133 111.95179749 75.62630463
-25.15822029 110.28088379 8.80294800
-23.98042870 112.23728943 78.95938110
-25.02489662 64.47272491 117.35945129
-24.89459610 101.47126770 -0.88723212
-24.55093956 -13.74762249 145.83743286
-24.83377647 -7.02879095 118.37752533
-25.26803398 112.95668030 2.60095739
-25.00150871 114.59497833 64.88475037
-24.96064186 -6.68693542 141.21884155
-24.80617332 111.54920959 69.33783722
-24.98259163 51.28821564 111.17835236
-24.59568787 110.31806946 73.28365326
-24.61444473 -1.37998605 121.73384094
-24.41094208 114.52091217 59.76353455
-24.71106339 112.18974304 58.36014175
-24.51126671 -5.35860443 120.56000519
-24.97492027 57.41434097 113.62469482
-23.96043968 105.70580292 8.05899620
-23.14075470 114.71644592 2.10176659
-23.27423668 106.62646484 158.23596191
-23.79700661 -29.99778748 146.01402283
-23.55651474 -39.95958710 116.93827820
-24.56274986 69.12225342 118.41928864
-23.87651634 16.47933197 152.79304504
-23.02403831 104.03646851 70.95259094
-24.43432999 -23.75772095 149.26521301
-24.69070053 66.69709778 168.12199402
-24.60301208 -18.80672455 104.49365234
-24.64369202 89.41623688 91.06648254
-24.63220024 72.23269653 170.08500671
-23.89739609 114.53496552 8.70209026
-22.63024902 111.69649506 89.85858917
-23.91296768 112.96834564 71.04563904
-24.58806992 92.02909851 86.26335907
-23.95121956 111.51365662 139.52987671
-24.74457550 -20.27122879 95.85859680
-24.24474907 2.08999753 148.08381653
-24.19883156 45.60088730 109.07547760
-24.26079559 -17.63060379 96.18858337
-23.81441498 -23.04463196 104.45675659
-23.96970177 -24.51386070 93.67948914
-24.12712288 107.98866272 68.64203644
-25.53304482 110.27606964 1.89032364
-23.97236633 -15.60990906 101.17914581
-23.96613121 -17.46240044 92.64429474
-24.22756767 109.63654327 61.83751297
-22.27622223 107.88751221 14.21697998
-24.27300644 110.36403656 57.18659592
-23.81210899 -8.79497433 111.09460449
-24.29030037 63.93579865 166.54600525
-23.91203308 -20.02526665 90.46733856
-23.98918724 19.72677612 109.79470062
-24.06819916 -7.56807184 113.62312317
-20.13630676 106.64929199 1.39984167
-23.35959053 116.53231812 66.73027802
-22.95625114 -37.48658371 111.83734131
-24.04370880 98.14054871 77.41861725
-24.00736809 -18.54488564 101.63071442
-24.07990074 72.89739990 114.33899689
-23.76877022 98.97348785 166.58454895
-23.94494438 55.13472366 158.99343872
-23.87617683 85.42598724 100.34767151
-23.61814308 66.62742615 117.08137512
-21.12269974 114.14735413 85.06642151
-23.79094315 -7.07444239 146.81130981
-22.99853706 30.01451492 156.00811768
-23.33425331 -0.62867582 116.25304413
-23.90780067 80.29969788 170.97000122
-23.03662300 111.44992065 53.23441315
-23.85070038 61.50519943 164.09300232
-22.85398102 -25.99335670 104.76412964
-22.21844673 -30.04205513 108.17567444
-22.74357605 -41.70967484 118.96624756
-23.72770119 105.10600281 8.30582619
-22.87706184 116.57775116 61.24787903
-23.19504166 115.36013794 56.50831985
-22.75655365 111.55420685 152.02015686
-24.18850327 113.39574432 7.92818594
-22.89184952 -26.34003830 91.42160034
-22.49821663 -13.11103630 91.65508270
-23.54199028 11.81412315 111.47335052
-21.76527405 100.57976532 -1.57186592
-22.77287483 103.31650543 5.27018261
-23.32418060 79.71752167 108.77057648
-23.34456253 -10.50232506 105.89134979
-23.24218178 70.36236572 117.10195160
-23.42901039 83.09651184 104.36045074
-23.44613075 81.04459381 106.12429810
-21.91114426 -30.56110764 149.74917603
-22.71418571 31.70204926 106.83071899
-23.17652702 60.00944901 162.40449524
-22.47320557 -11.35548782 98.12927246
-22.78667450 51.49401093 109.38225555
-22.91130066 115.94079590 3.57111740
-22.60255241 113.14255524 145.57571411
-23.17973137 105.47861481 10.92406178
-23.04747772 91.35343170 170.56382751
-23.32410812 114.62298584 23.19656372
-22.63961220 -34.55807495 145.31726074
-23.18790436 110.97361755 12.06264210
-23.07593346 112.52083588 25.58428001
-22.27343941 114.50519562 73.25406647
-22.69651031 111.52101898 22.79211044
-22.88223839 -18.23934937 87.73918915
-22.87224960 109.67166138 100.73194885
-23.30979347 -37.46060944 11.63546371
-22.96843147 108.81725311 58.33123398
-22.26783562 106.25630951 67.43096924
-23.02505302 111.53181458 113.75854492
-21.82494164 -5.55555248 113.00481415
-22.91516113 113.14898682 51.68161774
-22.47880363 113.67205048 80.55126190
-23.12098312 -40.07271957 8.67176819
-22.67779541 -26.02537537 101.95610046
-22.64555740 114.38105011 20.32852936
-22.87779236 -16.04091454 152.63885498
-23.59554100 58.77828217 112.99967194
-22.06591988 117.77400208 68.68029785
-22.62561798 -37.00359726 11.10583878
-21.97886276 99.95947266 -1.10521746
-22.09005737 -27.77241516 95.08328247
-22.55243492 4.18203306 152.83460999
-21.54163170 115.10934448 134.59434509
-22.91462326 116.04930878 21.50874901
-22.34633255 -13.48523426 89.41004944
-22.27820015 -28.60142899 85.45882416
-22.41727829 -39.85000229 8.15960598
-22.57924843 -16.98616791 86.06463623
-22.01288223 109.89897919 53.00780106
-22.31729317 -27.37696457 91.84234619
-22.01846504 112.52755737 30.04860878
-21.06052589 -33.22772598 80.71759033
-22.32944870 110.27671051 14.72289467
-21.50640488 114.73091888 122.20625305
-22.34525108 115.43378448 52.89749146
-22.35078049 113.99826813 40.40605545
-21.80056763 -11.89895630 153.10540771
-21.95090866 115.76605988 27.02431107
-22.18737411 117.33503723 7.69543791
-20.66024017 100.61607361 -1.05279291
-22.27950096 110.75072479 18.32166481
-21.72972870 111.17791748 30.62017822
-21.60068703 -9.69139385 99.21870422
-20.55612183 -40.74325943 142.24787903
-21.86086845 113.06185150 19.58423996
-22.15170097 -37.70633698 110.56346130
-19.13511848 67.87933350 115.87941742
-21.86109734 106.44532776 14.21978760
-22.22529984 -19.67910004 153.63800049
-21.68673706 116.16147614 10.30184174
-21.85172462 23.95386887 106.28131866
-22.13710594 113.93141937 28.68820000
-21.53285217 -40.99717331 7.60558033
-21.16965294 115.67968750 129.23269653
-20.80145645 110.42657471 103.42105865
-21.97301483 88.08827972 93.03424072
-20.25651360 -8.00607491 155.21568298
-21.12242699 34.88665390 158.41546631
-20.92094040 -41.93855667 113.11221313
-23.45239067 -41.29497147 130.94055176
-20.59751511 -36.28352737 20.15274239
-21.85004807 -5.37751102 152.01586914
-21.99268913 91.31373596 86.74696350
-21.81466103 117.60241699 19.43294907
-21.54454422 -39.31161499 18.36714935
-21.68206215 97.23869324 169.72088623
-21.45717812 98.90193939 75.95872498
-21.34695625 -27.79311371 151.72856140
-21.17632675 69.51771545 116.77186584
-21.03053474 103.32107544 8.84932899
-22.10642624 -41.68518066 6.78251410
-21.63505745 109.47467804 22.60646248
-21.27654076 103.20744324 164.98596191
-21.73723412 112.74617004 13.45923042
-22.16393089 114.40518188 3.10166240
-21.58336449 52.79877472 160.85012817
-21.78278542 115.74633026 40.53718567
-21.81154633 -14.62860394 86.18257141
-20.82690239 118.14771271 54.34120941
-21.51944923 85.76960754 99.80012512
-21.26727104 -41.68280792 16.91259956
-21.25296783 119.71979523 70.41887665
-20.42840195 103.41007233 11.39601231
-20.94871712 -24.82128906 81.11771393
-22.76393509 45.56538391 158.09355164
-21.02327156 117.29541016 74.60800171
-21.72903633 -34.32566833 14.64159203
-21.61137009 107.57390594 60.01482010
-20.18997765 71.21472931 115.58203888
-20.49286079 -33.69925308 77.43152618
-21.51611137 0.64177775 111.39562988
-21.47689629 -41.04832458 19.79367447
-21.48087311 7.58369255 108.98368073
-21.48942947 15.25876522 107.00993347
-21.88365746 -11.95456123 93.86943817
-21.27326584 111.07176971 107.33522034
-19.41683578 -37.87092209 149.01712036
-20.36246109 117.46809387 6.86837339
-20.09779739 119.94359589 63.53496170
-21.39021683 74.08428192 112.75600433
-20.82722855 110.17850494 32.38880157
-21.10138702 116.50856781 44.40066910
-19.63237190 -32.69644547 15.33760643
-20.74482918 114.48580933 17.81217957
-20.25963593 108.84964752 53.58172226
-19.40505600 -33.43901825 105.61815643
-19.34716988 102.67520142 6.38393354
-21.32381630 46.98701859 107.05189514
-21.24357033 84.07508850 103.38404083
-21.33567810 110.94236755 96.07730865
-21.10144234 -16.58301926 83.36753845
-21.25245667 -6.87816143 109.23170471
-20.69342995 -23.01866531 80.60227966
-20.70674515 -29.35600281 104.48773193
-21.20910072 -8.66440964 103.07800293
-20.50507164 113.64540100 15.67137623
-20.98969078 -36.61760330 20.90146828
-21.16048431 42.26323318 105.97327423
-21.35064507 81.34397125 105.77184296
-20.42212868 -44.11504745 129.47602844
-21.02733421 113.52188873 114.37310028
-20.85544586 105.54032898 14.51477909
-19.38862610 -36.93690872 85.17777252
-20.12405205 -38.02170563 78.87104797
-20.20962715 -29.35965919 92.34484100
-20.41686630 119.24322510 26.63225746
-21.03123283 79.72273254 108.53549194
-20.35313416 -43.86444855 17.31310081
-21.03461838 117.19883728 27.92045212
-20.54835320 118.06874847 45.42593002
-20.37216377 -29.45917320 78.03503418
-21.64147949 -43.55144501 124.26441193
-20.94095421 117.24794006 35.81351852
-20.85299301 108.51210022 158.86294556
-20.30030441 119.14459229 18.73074913
-20.09991837 115.05255127 12.28551292
-21.99419403 -36.26843262 12.98005676
-19.53170395 103.26244354 8.31923485
-20.13396263 108.02635956 1.31343031
-20.25255585 32.32068253 104.51667786
-18.97345924 104.40386963 0.53918809
-20.91924858 24.59887886 157.47128296
-20.14809990 -22.33923340 155.48669434
-21.35451508 109.17244720 27.22870636
-20.30068398 109.68337250 36.29920959
-20.68318558 -46.13871384 62.06742096
-20.66516495 115.13475037 145.62814331
-20.65382004 -45.26824570 65.71050262
-20.19499588 116.84590149 9.45593071
-20.57014275 108.57984161 22.71840477
-20.61529160 -47.58958435 67.53815460
-20.67086792 -42.58677292 69.57263947
-20.35288239 117.96479797 75.21132660
-20.56629372 -45.11157227 71.05323029
-20.63059998 113.56300354 152.24099731
-20.22660637 117.33209991 17.69661331
-20.52222633 -44.55617905 62.20752716
-20.13449669 119.56080627 35.00510025
-19.62916946 -29.22503853 99.89513397
-16.57811737 -38.99891663 10.80146694
-20.45721626 120.67584229 70.44483185
-18.97705650 -43.24825287 5.51214170
-20.02400589 118.68203735 54.34681702
-20.39419937 65.00140381 170.24299622
-20.10753822 -48.73937225 63.30983353
-20.12340546 -42.52787018 138.27876282
-19.13192368 -31.10405159 90.81202698
-20.38450241 106.10962677 65.90068817
-19.50735283 -5.67651320 108.49497223
-19.77343559 -21.62277031 79.82041931
-19.68005562 57.74139404 110.54956818
-19.65867233 -33.86608505 88.74814606
-20.15782928 -12.73916149 85.15531158
-19.80363464 118.55446625 47.01375198
-20.25272560 -40.07815552 68.25528717
-19.90164948 -39.14385986 74.70886230
-19.62633324 106.51580048 62.72603226
-17.91976929 99.63281250 -1.17759800
-19.43490982 -3.75520802 108.45860291
-16.43428612 100.56856537 -1.60485911
-19.96595573 -10.44874001 88.13863373
-20.01914787 9.43587875 157.33909607
-18.76555443 -41.46752930 24.71663857
-19.79112625 -8.92182922 93.37876892
-19.42619324 -43.66940308 15.80551910
-20.08430290 1.08399332 108.71365356
-17.93572998 -42.78633118 5.50294971
-20.04744720 -43.04597855 33.28368378
-20.00848389 -44.12635803 116.73246002
-19.81451988 25.09011459 104.13607788
-19.89899445 -42.36878586 65.73760986
-19.94058418 -44.12562943 31.01176071
-19.45565414 86.72903442 100.66076660
-19.69095230 -45.84923172 34.12122726
-19.69475555 110.88474274 96.80587769
-18.83382225 -45.36235046 21.16823387
-17.93932724 115.26982117 3.80938673
-19.66407204 -49.38247681 67.57117462
-19.88430023 71.41100311 173.17199707
-19.86497116 7.85153723 106.48209381
-19.73038292 -37.09276581 71.37696075
-19.41524124 -32.39026642 17.19869804
-19.18681335 -44.07951736 22.74330521
-18.89782143 -36.27069092 23.24769592
-19.26734352 119.87708282 18.01132965
-19.08657837 117.25652313 77.46869659
-19.80147362 -46.84754181 71.86524200
-18.91573906 118.55069733 17.24308205
-19.34249115 110.94096375 103.16502380
-19.00915337 -36.09218597 69.33934784
-18.18250084 -43.29209518 78.61878967
-19.69708252 15.50530815 104.69011688
-16.97884178 -9.29107571 160.87538147
-19.26823235 -43.40311050 75.14618683
-19.18524361 109.36382294 33.76788330
-19.25258446 -1.21678007 157.56636047
-19.51918793 105.15603638 14.40098667
-19.13472176 117.58736420 131.10182190
-18.96282387 108.06751251 28.35234261
-18.80876160 89.24553680 91.93888092
-19.40736389 91.43454742 87.56877136
-19.04982376 -47.39760208 31.10571289
-19.27812576 -108.19830322 201.22052002
-18.65503311 88.05273438 95.28149414
-18.82967186 -42.16425323 146.68418884
-18.85597801 -38.96305084 107.68506622
-19.33597374 -46.07530212 58.28616333
-19.26008415 -105.75907135 194.88893127
-18.73937225 -39.35610580 32.53467560
-19.31191635 -43.93194580 58.88170242
-19.14007187 119.42912292 33.23804855
-19.11364365 -43.18732834 142.25105286
-17.58695793 45.23435593 162.19493103
-17.35899734 -32.33046722 102.20856476
-18.76225853 -39.95360947 31.13244247
-19.11500359 120.67268372 71.11174011
-18.80419922 114.68731689 113.90739441
-18.63779449 -105.62055969 192.07241821
-18.74001122 118.08903503 53.03921127
-18.96392822 119.13725281 59.37603378
-16.48675728 -31.28695869 157.71676636
-19.20314217 108.04315948 22.45973587
-19.47633171 82.12320709 105.85974884
-18.44487381 116.77783966 6.36374426
-18.75098801 -43.88079834 25.19869423
-19.21220016 79.49379730 174.02000427
-19.18320084 115.42900085 17.06749916
-18.53767395 115.96212006 5.27785015
-18.94088936 74.16610718 113.33443451
-19.08411407 121.02556610 67.85373688
-18.67000771 117.89723206 43.90351486
-19.10670090 60.53400040 167.09100342
-19.52574730 104.27956390 69.22479248
-18.44499207 114.53092957 15.27339554
-18.71084976 -44.07469177 27.63031197
-18.35321045 106.17831421 66.17733765
-19.38495827 119.47500610 21.18070793
-18.38965797 -42.29914093 36.00170135
-17.86240578 -46.39727783 128.78117371
-18.46065903 -33.11255264 21.98833275
-18.29969788 109.21334076 50.36978149
-16.35000801 81.81380463 108.22672272
-17.67199326 51.22238541 163.65002441
-18.59671974 116.85386658 122.55950928
-18.47248077 -44.52808762 37.63637161
-17.49350166 103.27802277 8.86478233
-18.13310242 -28.82189941 72.60334015
-18.87859917 -14.38000011 158.35400391
-18.17783356 -42.83206558 109.57971191
-18.64123535 -42.75822449 29.34120750
-18.27178192 -46.30524445 26.55712128
-17.49007416 -104.25959778 188.94308472
-18.76189995 86.62419891 173.60899353
-18.76464081 114.38307190 84.44167328
-18.45288849 29.44916344 159.95252991
-17.92676163 -45.26747894 136.65049744
-18.75291634 -33.51906967 21.27928162
-18.66739082 -44.61917877 55.18948364
-17.59913063 -39.10509872 35.20682144
-18.65250015 116.62400055 145.71600342
-18.33727837 -48.12327194 34.48663330
-17.34468842 57.30960846 166.51339722
-17.86526299 -39.37408829 25.22544098
-17.53872681 -49.24545288 72.21672821
-18.20257950 110.45114899 96.96562195
-18.01673889 -26.15230751 156.67720032
-18.05465317 101.74563599 168.81771851
-18.47940063 110.14900208 159.00500488
-18.26042175 -106.89767456 198.63653564
-18.16836548 -105.50466919 196.75820923
-17.87111664 71.01351929 115.98519897
-18.06356239 109.50766754 33.89765930
-17.79636765 -45.46379089 16.23374176
-18.40889931 -7.09891987 103.34600067
-18.14650345 -47.54677963 54.27325821
-17.17023087 -102.99681854 188.84242249
-18.56868935 -14.54348278 81.84573364
-18.21123695 -45.97378540 38.46051025
-18.64414787 -33.40506744 16.06015968
-18.31946564 -11.48429203 83.89897156
-18.07490730 92.93977356 172.93354797
-17.49393654 118.11404419 26.84651184
-18.01365471 120.21554565 67.06826019
-18.16926193 88.67456818 98.59872437
-17.03615189 -32.59774780 20.39576530
-17.11328316 -49.05462646 55.88975525
-16.58505249 -51.62462997 67.17652893
-17.88934898 118.22462463 136.19497681
-17.72274399 106.75063324 1.43995619
-18.24460030 114.90499878 152.52200317
-18.10288620 119.08415222 18.79505157
-17.79939651 -46.13328934 19.14291763
-18.27540970 -21.68113899 78.07716370
-18.16589928 -45.20380020 113.99299622
-16.98716927 -107.93331146 198.68957520
-17.97651291 -42.36882401 41.23634720
-17.94159317 -8.65119839 87.86026001
-17.45905495 -42.79297638 152.32908630
-18.11730003 21.46380043 159.98899841
-17.72974968 -33.79373550 154.56622314
-17.39414787 115.24851990 17.33252907
-17.72829819 117.51493073 59.05374146
-16.84776878 -101.48991394 190.33580017
-18.08889198 105.32881927 13.97588730
-17.88097382 -45.98964691 142.76040649
-17.88356590 108.16474915 22.33494186
-16.33948708 -100.89801788 191.34576416
-18.09528542 108.75833893 53.78502655
-17.57340240 -7.61061954 93.62548828
-16.75599670 -40.64953232 155.39199829
-17.38076401 -47.44056702 39.40024948
-17.88912582 -42.30214691 55.71428680
-16.86512947 103.99510193 10.82447624
-16.23242950 -17.72870064 161.06428528
-19.53451157 -42.40666199 63.79479599
-17.38974571 -40.67655182 27.35389519
-16.25710297 -33.97647095 68.22422028
-16.44727707 114.39203644 111.05155945
-17.84567833 120.45156097 70.70045471
-16.81583786 -103.94561768 191.42285156
-17.48856735 116.39473724 75.78369904
-17.64601517 113.20203400 84.51470947
-17.74131584 -38.37770462 65.52322388
-18.19192505 104.11640167 70.05011749
-18.02857018 41.67521667 103.81924438
-17.10657120 -30.40931892 97.22784424
-15.19705677 101.69085693 -0.61313432
-16.73605347 -47.32631683 132.80862427
-17.00943947 119.40096283 70.68185425
-16.83316231 108.78961182 29.04422760
-17.53425217 13.50470448 160.26544189
-17.19777298 115.12365723 12.56592941
-17.63821602 46.83767700 104.95500183
-16.56184578 -104.49616241 195.07420349
-17.58769989 36.86880112 161.17900085
-16.74310303 114.75610352 44.16349792
-17.36326218 110.39752960 100.91451263
-16.99633408 -38.91195679 31.16683769
-17.18677711 -30.91739082 99.87723541
-17.34882927 114.38065338 76.25579834
-16.97996140 -40.90351486 44.57015991
-17.28773499 92.48422241 87.69525909
-16.91627502 107.75082397 59.20801544
-17.04449272 110.12844849 33.23064804
-16.75484276 114.72234344 52.74976349
-17.10909081 84.61793518 104.92057037
-15.26351547 -100.77180481 192.26391602
-16.83441734 117.14416504 9.34220409
-15.52453613 2.89117694 103.37594604
-17.43029976 87.31739807 101.47200012
-17.46065903 -48.78636551 31.17940331
-15.73900700 -37.32833862 33.19015503
-17.14898109 29.21983147 102.06837463
-15.97348309 -30.55740738 92.79431152
-16.88164902 -40.79816437 55.05113983
-17.05768394 110.33395386 94.13640594
-17.17011452 111.10012054 84.01426697
-16.59850121 -44.81055832 15.22933865
-16.81997490 -34.05776215 23.14457130
-16.58286095 -37.82596588 11.39391232
-17.05680656 -46.71504593 118.19441223
-17.05883598 110.20641327 48.55316544
-16.22494125 117.47950745 21.75082970
-15.13921928 -40.37047195 9.15918922
-16.26780891 -47.93800735 26.86278915
-16.96420479 -39.64706421 39.09537506
-16.86239433 52.31695175 106.75086212
-16.62753677 -35.97801208 23.67992592
-17.41151619 -40.80912018 29.35206985
-16.57913589 117.09886169 120.00238800
-16.87724876 109.58626556 54.02570724
-16.81473541 -50.78280258 60.82590866
-16.43375397 89.65599823 96.49935913
-16.87713242 117.85924530 66.62593842
-16.56768990 18.62640953 101.69690704
-16.66061211 -2.35874844 160.96600342
-16.17992783 104.00971985 7.91525030
-14.61255169 105.92987061 166.42439270
-16.53516388 -39.48390198 63.30847549
-15.88421440 -38.71755219 104.68189240
-15.22901154 -106.09298706 197.17376709
-16.77022934 5.05613422 160.79486084
-15.44055939 115.93103790 19.24841690
-15.98292351 112.96333313 14.62564087
-15.62245178 -48.50979233 138.06434631
-16.94931793 116.56200409 30.59096909
-16.40584755 109.55190277 92.51219177
-15.67028236 119.08954620 129.57289124
-18.55371284 78.75626373 109.69503784
-15.27163029 -52.38931274 146.79399109
-17.20106888 -40.18402100 83.81076050
-15.76183319 112.60933685 57.10750961
-16.19182396 98.38722992 171.69030762
-16.64408112 108.47063446 21.24917603
-16.09980202 116.39962769 69.84657288
-16.49768448 106.16990662 12.38337326
-15.92482090 -20.90781212 76.96474457
-16.72931862 106.62602997 67.97513580
-16.39232445 111.90052795 50.77320862
-14.29899883 -43.54722214 5.12272310
-16.37950706 56.98631668 109.02379608
-16.58408546 -13.37233448 81.09162903
-15.94012070 116.21433258 71.01856995
-16.02298164 109.09019470 23.76070595
-16.52194977 111.13098145 80.30055237
-12.84051323 -42.57733154 5.21437502
-16.49312019 -24.72622299 74.28138733
-15.99302959 -37.70493698 30.13354492
-15.65988541 107.83900452 93.48824310
-16.24752808 117.71401978 145.85166931
-16.42992401 113.67028046 74.44263458
-16.39293098 -39.79431915 58.97374344
-15.25458717 116.25309753 3.85648990
-16.81196976 -35.60527039 88.91526794
-14.85436630 -33.02255630 17.11730576
-16.31362915 -9.99134350 83.39234161
-15.93377876 111.72969818 30.18196297
-15.50598717 -48.73055267 39.28014755
-16.25573730 112.21704102 34.80902100
-14.83723354 -46.45861435 17.54264069
-14.73144722 -44.85983658 15.04448891
-16.16346931 115.45737457 27.09737015
-16.25642776 114.12434387 33.27592850
-15.73316669 90.50708771 94.22712708
-15.59703827 114.77859497 11.49801350
-16.28623581 117.87036896 6.89207745
-15.78104782 -38.61438370 38.13882065
-16.09287262 108.40309906 79.26794434
-16.02388191 111.00505829 54.44805527
-16.11833000 109.83672333 100.60324860
-15.72195911 116.20355988 67.19152832
-16.18570328 -31.75786591 90.89297485
-15.29733372 110.26048279 27.36693001
-15.83022881 -48.84852600 154.88909912
-15.83739281 -50.89446640 150.88908386
-16.29475975 -49.32421875 32.94638824
-15.99025631 61.87427139 111.86193085
-15.98667431 -46.74526978 21.64337730
-15.53547192 108.67086029 58.27274323
-15.39561081 -8.07766342 85.87742615
-15.67478943 113.93317413 18.46323013
-15.94129276 111.82261658 73.36322021
-15.66295147 119.14689636 137.43234253
-15.99895287 109.00563049 86.32220459
-14.24433422 -38.22428513 161.78303528
-16.02472496 109.06019592 19.89039230
-15.34192562 92.53171539 90.13999176
-15.55954742 105.46624756 83.27441406
-15.10665512 -49.95977783 140.67262268
-15.54987335 108.10666656 12.48533630
-15.96399975 -45.78659821 112.01100159
-15.29377270 -2.83105731 162.60810852
-15.92240047 89.96399689 98.87950134
-15.43477821 -49.39503479 52.47843933
-15.42747593 111.56783295 158.89668274
-14.40574741 105.13045502 8.49034119
-14.91738033 -32.43302155 21.16214371
-15.48740578 -39.31086731 62.05419159
-15.83738899 115.67771149 152.86172485
-15.65686417 39.74082947 163.45025635
-15.26916885 -38.65548706 25.57370758
-15.53687668 110.79503632 15.54953098
-15.03570461 -39.97777939 27.48514366
-14.15928364 -104.61546326 194.57141113
-15.14282894 -49.54682541 72.93928528
-15.20857525 -32.98481750 19.02781105
-15.43021297 -114.09375000 176.85659790
-14.34274769 -46.69182587 161.33699036
-13.20157051 90.97154236 101.20752716
-15.66968441 107.57489014 68.66152191
-14.63503361 111.34760284 59.14112091
-15.05481911 -39.39999771 30.26399231
-15.39758301 -115.25827026 175.99418640
-14.93471146 111.30817413 69.33322144
-14.89047813 -37.66846466 64.94882202
-13.32855129 -106.29415131 194.94699097
-14.73962116 106.70987701 92.43386078
-14.66244125 107.72754669 98.03556061
-14.91261196 -5.67970896 102.57384491
-15.08744526 109.35688782 71.13686371
-15.59189415 -6.52836609 101.33513641
-12.84228039 -102.33499146 193.86520386
-15.31468010 -111.34011078 176.75471497
-14.82550144 -37.17961502 103.03461456
-12.03672504 -34.01495743 15.42506599
-14.13300037 -3.91683459 102.59606934
-15.16335201 -113.74979401 178.20840454
-14.86999893 69.73821259 115.66895294
-15.22207451 -31.83846283 98.21254730
-15.38090038 54.43239975 167.36999512
-15.36961937 -48.11513138 124.58575439
-14.74757862 -40.75299072 83.17824554
-15.35509968 -7.03570986 90.12280273
-13.91552258 -50.16334534 133.04983521
-15.10225868 -112.84597015 179.37396240
-15.35259914 111.85334778 106.40256500
-14.94332504 110.01412201 67.14794159
-13.80094814 101.73844147 -0.53745675
-13.49997902 -102.57799530 185.85160828
-14.71563816 116.90901184 9.20751476
-14.70608521 48.45248032 165.76754761
-14.35983086 -23.23891068 74.67263794
-14.74129486 109.07659149 63.63717270
-14.13414383 -101.21903229 193.20693970
-14.70893860 -39.24506760 56.45306396
-15.12038612 114.08793640 3.06870270
-14.83007717 -37.99204636 33.77648926
-15.12083817 108.01110840 69.89800262
-14.42395687 -17.52085304 78.44197083
-14.87792683 107.20217133 77.81265259
-14.45238495 102.08232880 88.04296112
-14.12690258 95.87427521 87.57189178
-14.59530449 117.90390015 121.92649078
-14.13949203 -51.70503616 62.77251053
-14.15518188 -108.77245331 178.99615479
-14.57838726 112.13618469 21.67123413
-14.19349194 -13.51109695 80.06732178
-14.53584862 -108.67466736 176.84403992
-13.42407703 -56.48830795 162.62170410
-14.57074070 110.44558716 11.57844734
-13.58019543 -44.30324173 163.75175476
-14.45145512 -113.09825134 176.40055847
-14.21746922 110.48567200 64.94179535
-14.30264091 114.91798401 22.71770477
-14.76627827 114.92555237 2.30877614
-13.35188293 -19.80860519 163.93128967
-14.45554543 -48.04890823 118.51345062
-14.86900043 31.57019997 163.02400208
-14.58129978 105.22186279 90.86601257
-14.80559540 109.89734650 58.10451126
-15.00180912 117.94093323 7.27495766
-11.97249126 -101.60589600 187.83692932
-13.99333286 -109.34083557 173.62211609
-14.08558559 112.56860352 25.08500290
-14.35856056 -39.22832489 38.87342834
-14.06586742 -10.22100353 82.16127777
-13.91986656 -35.33616638 88.19032288
-14.60531425 107.89308929 73.56105804
-14.64050007 -43.12820053 106.73000336
-14.09822369 106.23392487 7.89637709
-13.75324726 -116.33805084 177.19761658
-14.63265133 -111.39456177 174.51428223
-13.79115200 -116.31687927 178.41697693
-13.74814606 107.87055206 9.95763779
-14.55170918 -46.59891129 22.31657219
-14.61851406 -49.27352905 31.45337868
-14.09508419 101.22463989 81.49018097
-13.49070835 -39.35319519 62.23828125
-14.35552216 -39.56658173 49.52233887
-13.91158199 73.46265411 116.28988647
-13.85959816 -33.89237595 68.17657471
-14.24366570 -31.18344307 90.92501831
-13.92352962 115.73161316 3.25111151
-14.22428417 115.18518829 113.74542236
-12.99691105 -115.88807678 176.95323181
-12.73838806 -116.82021332 175.73408508
-14.15754604 9.80021000 162.40403748
-13.82242966 -51.90692902 66.99329376
-13.44847393 -102.05949402 187.29426575
-14.01760578 -100.78573608 185.82354736
-13.82833481 -46.20941162 75.80662537
-14.37109947 -50.04003143 160.81033325
-14.24725151 -112.80331421 173.23974609
-14.36417389 80.48565674 110.31431580
-13.87391949 119.28153229 139.06193542
-14.31820011 65.97869873 174.06500244
-13.91020012 -111.08599854 175.22041321
-13.70753574 2.21356916 163.37847900
-13.48759651 111.75130463 9.73482895
-14.29020023 71.98819733 175.72300720
-13.75950813 -37.13946152 102.14894867
-12.44301319 -36.18753815 23.61577797
-13.09607792 93.30161285 98.08306885
-13.16225147 -21.02292633 76.72306061
-13.37497902 111.25533295 2.42544150
-13.51612091 -103.33978271 179.38337708
-14.19439983 26.61240005 163.10200500
-14.25143909 -49.34373474 53.09422684
-13.24583340 -105.92624664 176.58946228
-13.24644852 -8.20685577 164.85704041
-13.48090839 -48.33423996 38.18001175
-13.21024513 -32.37998962 96.43927765
-13.88193607 102.02490234 83.99610138
-16.11806107 8.27524281 102.89048004
-11.60025311 -42.11060333 6.63788986
-13.49362278 -98.90750885 187.45291138
-13.27027988 -116.17761993 179.80654907
-13.71900940 -109.18844604 171.68719482
-11.49689293 -24.25677299 166.03254700
-12.96515942 -32.07814407 19.84912109
-13.77726364 -41.63613129 47.92897797
-13.71511841 -41.58705902 39.30517197
-13.35398293 -110.77892303 180.91896057
-13.58469772 -39.49527740 35.22632599
-13.48680019 -29.91303825 93.46269226
-12.54967594 16.75571823 99.20922089
-13.56238461 -56.35818100 146.02615356
-12.20132828 -34.48243332 164.78578186
-13.70193577 114.98130798 7.18264341
-13.86709976 79.84999847 176.06100464
-13.67978287 -114.83590698 177.29095459
-13.62603092 111.85257721 107.37853241
-13.13738537 -48.71263885 34.91856766
-13.06285667 93.55191803 94.92367554
-13.29600906 -40.58873367 57.85126495
-13.29815102 108.20011902 102.94026184
-13.10594654 -104.18568420 181.08862305
-12.81483078 105.16456604 99.67794800
-13.77877808 -30.44849968 94.80333710
-14.44387436 -40.06361008 29.18395424
-13.00764847 -38.97200394 31.78354454
-13.37157059 100.51889038 91.86111450
-12.98413944 105.36128235 0.45996663
-13.45719337 115.12010193 7.80233383
-11.09026051 -34.08937836 15.71484852
-12.79824448 -115.71253967 173.20054626
-12.65594578 -113.50259399 173.47857666
-13.57940006 86.71309662 175.27000427
-12.48026848 -48.39133835 73.05199432
-13.18536758 109.50684357 7.73783588
-13.31252098 -112.75929260 171.04179382
-12.98247242 -49.42452240 56.96117401
-13.22048664 -48.62420273 52.67339706
-13.40405083 -49.13311768 123.88808441
-12.79429436 96.10778046 91.25178528
-12.17727852 -26.47030067 73.45819855
-12.33572102 -44.41520309 53.78582382
-12.50162983 -40.78754807 26.45473099
-13.43789959 61.88420105 171.70799255
-12.93928623 110.06972504 8.17071438
-12.64493275 -61.31437302 156.19671631
-12.41337681 103.68128967 -0.24825644
-12.86876106 -38.60349274 83.22025299
-12.98947430 -46.21047592 24.33033562
-13.23350620 112.24227905 1.76797926
-12.36408424 -98.82969666 183.00248718
-12.17613983 -116.99873352 170.35813904
-12.76230335 119.46858978 134.39952087
-13.08962727 -38.77851105 25.23957253
-13.19790554 -41.40820313 35.63095856
-12.63081741 -52.70390701 135.97348022
-11.34907532 90.00971222 104.54465485
-13.30679989 21.55640030 162.94999695
-12.41762352 -47.77541351 29.74733543
-13.61974716 41.43509293 101.69401550
-13.42900181 91.59409332 174.45216370
-13.00700092 28.89502144 99.61365509
-12.51908016 -45.43406677 19.04275131
-13.01797962 -45.52155685 110.27255249
-12.44896698 -104.88863373 194.35691833
-12.33993149 -108.30165100 162.55651855
-12.17603397 108.58415222 163.92550659
-10.77312851 -32.21115494 17.12541389
-12.16354179 -105.13481903 181.76966858
-12.51791668 -44.37256241 48.44332123
-12.62946701 -100.49939728 180.14936829
-12.20785427 -42.19453812 105.63761139
-12.96694374 47.50190735 103.28373718
-12.92370510 -101.62320709 184.06109619
-12.00165176 -98.54235840 188.91159058
-12.26933289 110.62766266 4.31324434
-12.42751122 112.01022339 1.81676960
-11.45701694 -29.02999496 90.86261749
-12.21442318 -112.95854187 181.83218384
-12.78495789 98.73923492 90.24282074
-12.95410538 -6.96442652 89.37267303
-12.28993797 -98.54261017 176.04399109
-12.12249947 -105.27126312 191.97610474
-11.53309917 -42.85279846 6.07240105
-11.11071205 -102.29119873 188.90065002
-12.05901146 -34.22193146 23.15957260
-12.92409992 -8.59292030 84.80010223
-12.27456188 -101.50015259 164.20146179
-11.71395206 -50.18038559 61.54139709
-12.62979126 21.65388107 99.04467773
-11.73858356 -117.55313873 175.82279968
-11.83543587 -56.82558441 168.07438660
-12.46718216 85.71147156 107.48130035
-12.39268208 -43.78759384 76.23157501
-12.33440208 -42.00756454 28.94347191
-12.50224686 -51.03252029 130.84982300
-12.15973949 117.00349426 120.02426910
-11.43117428 -41.50155258 62.81194687
-12.71803093 52.48780823 105.46360016
-12.36294460 -46.40530777 45.17015457
-12.11538696 -47.10409546 56.53413010
-12.35398579 -40.70362854 78.91275024
-12.10307598 -98.38909149 167.28703308
-12.44369984 -39.40688705 63.58008194
-12.06627846 104.42317963 98.82287598
-11.93751335 -39.42885971 101.92800140
-11.80926704 106.67519379 1.18698215
-12.35374260 58.64272308 170.52162170
-12.02742481 -43.76109314 15.55600834
-12.45253086 -44.05765533 38.03825760
-12.07200909 -46.21633911 38.01938629
-11.75877476 -118.32104492 165.07977295
-11.88497925 96.34426880 95.85562134
-12.13389492 -60.20603180 146.88421631
-12.12515640 -31.28684425 95.15065002
-10.48458576 -6.68729687 98.71589661
-11.30505466 119.02884674 129.23689270
-11.73775768 -18.65141487 79.01958466
-12.35154819 -112.44631958 163.40963745
-11.21354389 102.06388092 99.23097229
-12.40515327 -102.43083191 185.70989990
-11.58581638 -44.39134979 16.51483917
-11.90601921 -96.82601166 181.87110901
-11.67435074 56.25310516 107.71908569
-11.93181705 -35.91706848 68.62133789
-12.07092285 -103.84085083 189.10890198
-11.44336700 9.91062737 164.11421204
-11.96269131 118.85549164 146.08552551
-11.16577148 -99.20887756 189.91510010
-12.20119953 102.07599640 170.96899414
-11.89782906 -44.48773575 27.16678619
-11.53024387 -106.77966309 184.25685120
-11.41375828 -63.58472061 165.55404663
-11.99185371 114.56958771 114.36473083
-11.68675327 -28.90707016 93.06724548
-10.42967224 -8.43387890 168.14422607
-9.53310013 101.09435272 172.20303345
-12.09808159 -0.99113470 165.13922119
-11.74598789 -104.44010162 185.70170593
-11.38608360 -65.98808289 153.34091187
-12.18099403 62.49760818 111.90821075
-11.86668396 -47.56000900 34.17595673
-11.33697510 -44.39373779 34.70191193
-11.38470078 -53.71929550 168.60224915
-11.42113304 -42.17681122 33.39056396
-11.38898468 -11.87801456 81.58652496
-11.41960335 -39.05714417 23.86515808
-11.78947258 -116.83103180 174.31721497
-10.76855183 98.56573486 99.16394806
-11.73821926 -44.67721939 57.46191025
-11.52155399 -42.86602402 23.04104424
-11.78335571 2.03493500 100.03849792
-11.03179455 120.14636993 138.85034180
-11.20195961 -115.83213043 159.02896118
-11.69634628 -50.76300049 67.63336945
-10.81147575 104.25388336 102.65384674
-11.10921192 -59.06365967 139.57293701
-9.55400944 109.91287231 163.05671692
-11.23439026 -95.21992493 165.11772156
-11.35057545 -104.10842133 158.95230103
-11.09110641 -45.38569260 30.68675041
-11.47536373 -93.45460510 178.91394043
-12.27515221 -39.21828461 65.36773682
-11.56453514 -32.65490723 21.12076759
-11.62017059 -54.03149033 134.34889221
-11.44110489 116.50772858 153.44415283
-11.55703926 51.30918503 169.17745972
-11.63560009 16.66259956 163.66000366
-10.46011734 117.90146637 124.83135223
-11.68508911 42.79953766 166.99940491
-10.55603695 -44.32397079 108.81694031
-8.99376297 70.05481720 115.39693451
-11.07611275 -96.55509949 186.43017578
-11.69642353 -40.64231110 31.47166634
-10.24655914 -43.06150436 18.01501083
-11.05618858 -99.53658295 159.72402954
-11.60386086 -66.64119720 160.89292908
-11.55160332 -40.44215775 75.56565094
-10.99582577 -114.89053345 181.84513855
-11.71274471 -32.42647171 21.90843964
-11.79719448 -97.12006378 175.88272095
-11.02369308 -29.53686523 73.41215515
-10.82033348 110.20020294 109.11616516
-10.93947887 -69.61334991 167.32716370
-11.18623447 -45.99217606 34.09869385
-11.13449764 -22.65875244 77.41905212
-10.63745403 80.44204712 113.09146881
-11.28623962 -48.97884369 69.96520996
-11.25666618 -32.58123398 15.64775658
-11.32920837 -47.27151871 72.96758270
-11.31919956 -47.81190109 116.75000000
-11.19898510 -38.04426193 73.20926666
-11.04208469 94.64053345 100.50833893
-10.65995121 -93.92283630 182.74699402
-10.52402306 -103.99758911 190.03163147
-7.37629318 105.64219666 170.18566895
-11.42833614 -36.80759811 70.26675415
-9.80471611 -105.13521576 188.64630127
-10.66828632 -27.00317764 91.46482849
-11.01611137 -62.49237823 145.10659790
-10.54647541 -9.63991642 84.44271088
-10.61375141 -68.39883423 167.73733521
-11.16769981 36.32659912 166.04400635
-10.29563046 -88.71762848 173.23466492
-10.67874146 -116.33144379 175.18855286
-11.07150269 -51.53673553 128.70223999
-9.29073238 -14.16293526 169.12689209
-10.54799461 -33.09132767 82.29795837
-10.03367710 -107.52998352 186.74743652
-10.39562035 -42.27201843 169.08522034
-10.38375092 119.93216705 134.39089966
-8.18162537 76.19817352 117.13680267
-10.45925522 -119.21047211 176.61650085
-10.30618191 -49.28313828 66.49200439
-10.78650093 -50.03268814 124.02805328
-10.50402927 -116.50087738 157.63349915
-11.14487362 -41.98262024 65.28224182
-8.85208416 79.64598083 114.75108337
-10.20958996 -41.93578339 16.35372925
-9.62408733 -41.71781158 7.28579807
-11.25983047 -7.31540489 88.92291260
-10.86701393 -48.00774002 60.78383636
-11.00249195 10.78371906 98.90259552
-10.40209484 -75.51707458 164.87879944
-9.19153214 -125.89297485 160.09005737
-10.75507450 -45.39257813 60.94139099
-9.73961926 -123.10338593 165.51792908
-10.80468273 -93.00484467 173.40298462
-10.07405567 -30.39442635 80.26495361
-10.29361153 -120.10543823 174.43238831
-10.69068432 -42.91322327 104.57824707
-9.65576077 -90.04092407 167.88281250
-10.20211983 -36.39149857 22.09101295
-10.36876774 -73.65150452 168.87998962
-10.69409847 -41.07976151 67.62348175
-8.94902611 -118.60406494 179.16789246
-9.92328548 -106.78494263 153.70785522
-9.84344578 -35.65751266 13.96232224
-10.51720715 -45.36982727 72.30502319
-10.24657917 -42.51710892 70.42941284
-10.56441689 -47.07500839 70.37194824
-10.62310028 31.60560036 165.52900696
-7.09448242 108.83443451 166.41450500
-10.39673805 -44.22679520 68.93464661
-10.40852070 -34.76346207 20.22486115
-10.09515953 -89.62084198 177.11952209
-9.94924641 114.44026184 116.78963470
-10.14349461 -94.43473816 162.94815063
-9.10319042 -13.02178097 82.94276428
-9.59178829 -92.97083282 168.96133423
-10.38080025 -68.08550262 151.47799683
-10.26687241 -88.45046997 170.05354309
-10.04861164 -101.16571808 190.34442139
-9.97205544 -35.01357651 20.86507416
-9.97370338 -114.23250580 154.58824158
-8.01256084 -46.11781311 114.09626770
-10.28776169 -72.98473358 160.49780273
-9.45968723 -33.26655579 169.94219971
-8.92275333 -97.66555786 189.16906738
-10.28569984 3.21380997 165.53799438
-10.13382149 -55.12569046 132.93138123
-9.56709576 -66.69181061 172.90885925
-9.99552441 -41.47768402 20.24075699
-9.68297958 -19.60464859 81.09282684
-10.08351040 -29.66821289 93.61919403
-10.00683880 -82.81195068 170.61300659
-10.16860008 -37.16759872 98.62509918
-9.17882442 86.51508331 109.73709869
-9.23624802 111.79200745 113.17853546
-9.99846554 -46.76869202 65.37266541
-9.62580585 -87.14260864 174.72242737
-9.41555500 -39.58211899 9.37261772
-9.70149231 -84.17920685 167.48312378
-9.78234291 -25.18897438 87.98992920
-9.58632946 -38.30491257 18.39820290
-8.58080101 -39.73464203 8.66560555
-9.04660225 -24.41030884 80.10341644
-9.44589520 -83.08020020 174.03585815
-9.37228394 -97.01102448 157.85491943
-9.06470776 95.30792236 103.15765381
-9.77944946 -79.82906342 171.70593262
-9.62985611 -64.27355957 144.63056946
-9.70728493 -34.53008652 13.87048340
-7.10115099 -49.82452774 176.75340271
-8.16388893 27.06185150 165.63072205
-9.51809216 -74.13544464 158.18148804
-9.45661449 -23.80347252 91.19937897
-9.60111713 -59.50243378 137.96827698
-7.21733904 -115.48003387 183.57025146
-9.23184967 -102.39111328 153.74430847
-8.66839027 -117.52827454 154.98466492
-8.52006912 -123.27498627 156.93919373
-8.80905819 -74.30399323 173.07798767
-8.19110966 -23.51362038 170.50914001
-9.46652889 -25.99106979 92.35438538
-8.36863613 -36.77016449 11.73121166
-9.44614029 -40.78760147 100.76200104
-7.29774094 -87.32902527 179.55018616
-9.11744785 -82.63608551 164.28189087
-7.70098782 -34.40440750 95.67918396
-9.39173985 -68.30030060 149.14100647
-9.05007458 -40.84021378 11.86062813
-9.19886494 -76.29263306 172.85914612
-8.04488564 98.35493469 103.59320068
-8.86195755 -38.29818344 15.02259827
-9.02026939 -21.53848076 86.17818451
-9.21851158 -27.75019264 93.43096924
-8.82720184 1.97610128 97.83438110
-8.97652721 -34.53853607 14.58852863
-9.26107979 -8.91007996 87.53330231
-7.24523020 -122.99722290 154.00335693
-8.29655266 -20.23798370 85.26690674
-9.06945992 -111.04634094 185.84757996
-8.40708447 91.36115265 107.69593811
-8.56486320 100.95986176 103.53254700
-8.31107426 -103.00753021 189.91735840
-7.41592169 -56.05163956 176.75927734
-8.54366302 -92.57803345 165.34399414
-9.09132957 -63.76660156 174.39500427
-9.04646015 113.05599976 159.13699341
-8.43073654 -51.20699692 124.62652588
-8.96623993 -4.77243996 98.35520172
-8.20778561 -126.40850067 168.61935425
-8.46533489 -99.67755890 189.99676514
-8.02039051 -111.47914124 150.71191406
-8.82346725 -94.24787903 186.16195679
-8.76407146 -106.37073517 151.58554077
-8.77109909 -48.33938217 118.73928833
-8.75534344 -19.57123184 83.04406738
-8.76019955 16.82909966 164.90699768
-8.75555992 -1.11970997 168.42100525
-7.78560114 -93.09376526 162.52838135
-8.65555000 -8.01914024 91.82389832
-6.44860744 21.76858711 165.38401794
-8.18838787 9.84085083 165.60647583
-8.19658661 -99.67606354 154.47810364
-8.54105759 41.63064575 100.06314850
-8.26128292 30.04831886 97.69866943
-8.23720169 -55.09487534 131.39117432
-7.91263866 -15.64257717 84.17798615
-8.10017490 -130.83155823 159.81153870
-7.39954329 -73.02072906 152.71507263
-8.26301003 -77.38206482 158.56336975
-7.24702597 -106.76887512 189.53900146
-7.45829391 -84.72591400 177.84004211
-8.09121132 47.97878647 102.12038422
-8.02113247 -27.76384735 92.82365417
-7.36706257 -115.98199463 153.16654968
-7.24998617 -20.68831062 91.92734528
-8.24032974 -5.63661003 169.92300415
-7.89105034 20.71305275 96.69720459
-8.20895004 73.34999847 177.30799866
-7.71099424 -60.32924271 138.20590210
-7.34944248 -130.49922180 155.05429077
-8.13457012 63.08729935 174.45399475
-6.82722187 -118.68959045 180.51290894
-8.11163044 67.62339783 176.03999329
-6.85703945 -31.86450195 173.21342468
-7.68228436 -102.33480835 152.44149780
-6.23764181 52.25036240 104.25127411
-7.44731188 -17.65378380 85.50426483
-7.40999603 -10.02292442 89.64974976
-7.98810005 80.74400330 177.06300354
-5.79703283 63.80834198 112.51422119
-8.12821770 -65.45906067 144.99559021
-8.11209297 58.68641663 172.69692993
-6.65796804 -94.27164459 158.52328491
-7.42749310 107.92900848 110.12765503
-6.31327963 119.65402222 134.24325562
-6.47032499 120.16561890 139.06588745
-7.84669065 -139.70291138 154.41648865
-7.47476768 -132.73515320 160.97187805
-7.48581982 43.16035843 169.45547485
-6.47821903 118.82968903 130.13122559
-7.73085022 87.14209747 176.14799500
-7.71884012 -86.94360352 163.31900024
-7.53171825 -25.34083557 93.54059601
-7.19113016 74.78507233 116.78100586
-6.13113976 -44.96325684 106.38703156
-6.84841776 -71.39827728 178.71073914
-6.51633310 119.35787201 145.79290771
-7.59034014 -108.18299866 164.61099243
-7.58830023 -8.04745007 96.91560364
-7.37143898 -107.94057465 150.60984802
-6.89283323 -9.46256351 171.27761841
-7.38156939 -19.55834007 87.48242950
-7.12077999 -140.49951172 152.58334351
-6.87255621 -131.18675232 165.25929260
-8.03979015 92.53680420 175.00456238
-7.45564985 94.02349854 106.62200165
-7.37379217 -83.05161285 160.97329712
-7.15225267 -140.59721375 157.30564880
-4.79773951 117.00939941 126.31273651
-6.96270084 -137.40785217 155.75592041
-7.21733427 -63.45154953 140.68957520
-6.62116909 -41.68497849 99.87773895
-7.30215979 -112.24800110 160.29499817
-7.23814011 -106.65000153 162.44799805
-7.17520666 -112.68023682 151.08047485
-6.84696865 -138.27427673 158.28074646
-7.17306995 -113.58999634 162.46899414
-7.17287016 -76.44869995 155.95899963
-6.46746111 -11.94652462 90.42607880
-7.13548994 116.95700073 153.80700684
-5.31021929 -83.40409851 181.51182556
-7.15924072 34.09687805 167.40509033
-6.40029383 -129.28065491 152.09291077
-6.88050604 11.72190380 96.77035522
-7.03672981 104.67099762 107.66899872
-6.32026243 -119.13625336 152.81600952
-6.34443760 -88.20899963 160.46592712
-6.59891129 -138.96496582 155.30780029
-5.65321589 -31.66860962 93.67826080
-5.71782064 -86.33153534 180.14701843
-5.42479610 -16.74064064 173.28565979
-5.84393501 -51.75898361 124.19333649
-4.73258734 -46.99953461 113.57341003
-6.44415379 -17.16565132 91.70726776
-5.96493626 -139.25326538 151.00007629
-5.33666468 -7.43272400 96.60727692
-4.72711468 -53.71490860 129.43867493
-6.25467539 -24.64212227 93.56390381
-6.75815010 -116.89199829 156.48800659
-4.22422838 -89.93170166 186.85954285
-5.30439901 -128.32815552 171.19151306
-6.65303802 -111.98419189 158.42834473
-6.60489702 -140.89645386 154.88456726
-6.34077072 -129.46055603 150.38076782
-3.61585402 -95.08402252 189.40861511
-6.52000093 -139.09147644 156.06062317
-6.43999290 -141.81770325 157.54830933
-6.62552118 -134.53407288 151.24165344
-5.88064289 -138.29338074 160.85060120
-6.21120882 111.96379089 162.10714722
-5.67353964 -142.51358032 151.63145447
-6.37382841 -63.51628494 179.25418091
-5.98149395 -74.15145874 150.68197632
-4.68850851 -43.97890472 102.29251099
-6.23673582 -105.42515564 151.19584656
-5.91484356 -135.72955322 156.33091736
-6.99054956 -118.73044586 157.40348816
-5.71410608 -11.19258499 96.37873840
-5.85557127 -57.83060837 179.36698914
-5.77525902 -91.70030212 159.09251404
-5.39541960 -137.45581055 154.93170166
-5.91953516 -20.95087242 94.94570923
-5.94695139 -92.95919037 187.42483521
-5.67824411 -137.90994263 146.96263123
-5.27647114 -97.24582672 155.89709473
-5.18696499 -126.79641724 150.43254089
-4.96293640 -87.33283234 183.22137451
-5.14226770 -120.14612579 153.99674988
-5.91259766 -102.73338318 191.04446411
-4.79421329 -135.90809631 146.65826416
-5.28672075 -142.09269714 149.81410217
-5.65626955 3.16745305 96.37750244
-4.08459282 -22.53369522 174.64659119
-5.95675993 -119.91500092 159.74600220
-2.92311478 -115.39868164 151.06900024
-5.32945538 -134.88912964 146.77473450
-5.85669994 -109.37599945 167.12600708
-4.53614664 -34.72509384 94.15315247
-5.38933420 -143.01916504 153.33963013
-5.18360853 -80.45418549 154.17007446
-4.79551983 -71.34606934 181.80453491
-5.80714989 -106.01999664 160.94500732
-5.80519676 82.49160004 111.67973328
-5.38789940 -123.40741730 158.83238220
-2.54463887 -27.24604416 176.25993347
-5.83277273 100.88340759 106.90494537
-5.40210056 -16.11789703 94.19360352
-5.73486996 1.17092001 169.49099731
-5.87862015 -125.61591339 153.34762573
-5.68659019 -3.39035010 171.09300232
-4.61543798 -125.35183716 174.34744263
-5.01120234 -140.15979004 153.84458923
-5.60561705 77.95676422 112.41630554
-5.59747982 81.41017914 114.31428528
-4.74567318 -116.29356384 154.50468445
