ply
format ascii 1.0
comment PCL generated
element vertex 1673
property float x
property float y
property float z
element camera 0
property float view_px
property float view_py
property float view_pz
property float x_axisx
property float x_axisy
property float x_axisz
property float y_axisx
property float y_axisy
property float y_axisz
property float z_axisx
property float z_axisy
property float z_axisz
property float focal
property float scalex
property float scaley
property float centerx
property float centery
property int viewportx
property int viewporty
property float k1
property float k2
end_header
2.9244633 -0.65633875 -1.3788378
2.090169 -0.79057509 -1.3191538
1.9553133 -0.43091837 -1.3215127
1.6388588 -0.62478048 -1.2996135
1.5549984 -0.33688077 -1.3035015
1.3368969 -0.51570231 -1.3087134
1.2702241 -0.26986736 -1.3132045
1.0810678 -0.42153585 -1.3006575
1.0339204 -0.2149612 -1.3023776
0.90161335 -0.35439759 -1.2713519
nan nan nan
nan nan nan
nan nan nan
nan nan nan
25.803896 -5.9502907 3.2284417
27.278843 -10.196829 2.7803066
25.757975 -5.9491701 1.8368894
21.920776 -8.1935368 1.0897027
25.723475 -5.9506574 0.6121847
nan nan nan
20.221008 -4.6857266 -0.48110461
17.33848 -6.4871845 -0.86167949
20.034883 -4.6426258 -1.4212581
14.417711 -5.399724 -1.4060527
12.860283 -2.9809685 -1.5303879
9.6227074 -3.6069531 -1.4411867
8.0487413 -1.8651297 -1.4417828
4.8783164 -1.8351599 -1.4815973
6.5985241 -1.5271132 -1.5432174
3.9192476 -1.4777852 -1.4286088
3.5131254 -0.80528027 -1.436317
2.3936167 -0.91056234 -1.3357873
2.9176176 -0.66604793 -1.3767278
2.0873966 -0.79786634 -1.3191538
1.947644 -0.43672815 -1.3173307
1.6384194 -0.63149709 -1.3011211
1.5556258 -0.34298715 -1.3051069
1.336697 -0.52126503 -1.3104219
1.2692742 -0.27429962 -1.3132045
1.0840769 -0.42730594 -1.306329
1.0316155 -0.21843433 -1.3004102
0.90168214 -0.35825038 -1.2733667
nan nan nan
nan nan nan
nan nan nan
nan nan nan
25.848206 -6.0556045 3.2366211
27.245411 -10.292868 2.7805445
25.807465 -6.0555611 1.8419214
21.812614 -8.2399912 1.0857432
25.777971 -6.0581317 0.61398351
nan nan nan
20.112082 -4.7345304 -0.47889957
17.341423 -6.5573864 -0.86296058
20.081678 -4.7273836 -1.425747
14.377821 -5.4420834 -1.4040017
12.832879 -3.0218594 -1.5283673
9.6054287 -3.6387656 -1.4404899
8.042181 -1.8932137 -1.4417828
4.8651423 -1.8496121 -1.4795339
6.5789194 -1.5467956 -1.5398686
3.9008133 -1.4863989 -1.4237303
3.5080342 -0.8170141 -1.4353837
2.3862998 -0.9173224 -1.33345
2.9174833 -0.67673862 -1.3777828
2.0806003 -0.80359858 -1.3165823
1.9501557 -0.44444072 -1.3201187
1.6343478 -0.63648599 -1.2996135
1.5562897 -0.348831 -1.306712
1.3314756 -0.52458352 -1.3070049
1.266615 -0.27836046 -1.3114032
1.0765052 -0.42865208 -1.2987671
1.0308467 -0.22203402 -1.3004102
0.89905429 -0.36084026 -1.2713519
nan nan nan
nan nan nan
nan nan nan
nan nan nan
25.85722 -6.157773 3.2405596
27.284218 -10.421968 2.7883942
25.853024 -6.1663046 1.8467801
21.674957 -8.2788839 1.080386
25.8396 -6.1773987 0.61601442
nan nan nan
19.99736 -4.7849598 -0.47657847
17.38258 -6.6458869 -0.86622137
20.10545 -4.8108163 -1.4286821
14.34752 -5.4936876 -1.4030902
12.821717 -3.0688741 -1.5283673
9.6006327 -3.6791666 -1.4418833
8.0447683 -1.9249662 -1.4435091
4.8490329 -1.8648244 -1.4767824
6.5732059 -1.5708982 -1.5398686
3.8994877 -1.5030689 -1.4253563
3.5005012 -0.82880056 -1.4335171
2.3848188 -0.92728102 -1.3346187
2.9039512 -0.68483549 -1.3725079
2.0794957 -0.81236392 -1.3178681
1.9424467 -0.4501881 -1.3159367
1.6300373 -0.64202321 -1.2981057
1.5512621 -0.35368744 -1.3035015
1.3277572 -0.52901345 -1.3052964
1.268922 -0.28397101 -1.3150059
1.0778836 -0.43401176 -1.3025481
1.026971 -0.22533855 -1.2964755
0.90046537 -0.36525387 -1.2753816
nan nan nan
27.358986 -10.565573 6.7790546
nan nan nan
27.290941 -10.528362 4.5751729
25.91626 -6.262713 3.2505565
27.309391 -10.53002 2.7943411
25.888189 -6.2654905 1.850771
21.570499 -8.3210478 1.0765429
25.822495 -6.2591343 0.61607248
nan nan nan
19.889931 -4.8253789 -0.47437346
17.421019 -6.7268834 -0.86924934
20.124172 -4.882184 -1.4310992
14.320902 -5.5351434 -1.4021786
12.814425 -3.1097245 -1.528656
9.5682478 -3.701267 -1.4387481
8.0458603 -1.9519695 -1.4448037
4.8319488 -1.8756952 -1.4733434
6.5753441 -1.5932598 -1.541543
3.88153 -1.5101619 -1.4204777
3.5046473 -0.8414132 -1.436317
2.373668 -0.93153161 -1.329944
2.9017854 -0.69395512 -1.3725079
2.0769331 -0.81889278 -1.3178681
1.9430437 -0.45676041 -1.3173307
1.6225668 -0.64464575 -1.2935828
1.5594834 -0.36070171 -1.3115281
1.3227975 -0.53158325 -1.3018794
1.2680236 -0.28795606 -1.3150059
1.0765911 -0.43720803 -1.3025481
1.0262979 -0.22838463 -1.2964755
0.9006815 -0.36864561 -1.2773963
nan nan nan
nan nan nan
nan nan nan
nan nan nan
25.981009 -6.3744192 3.2614622
27.305395 -10.643602 2.7979093
25.948507 -6.3760457 1.8566707
21.452909 -8.3618202 1.0721174
25.91213 -6.3766961 0.61874169
nan nan nan
19.767761 -4.8725386 -0.47187826
17.439306 -6.8039956 -0.87134564
20.038338 -4.9392052 -1.426265
14.294537 -5.5823808 -1.4014951
12.769186 -3.148355 -1.5246149
9.5714083 -3.7409558 -1.4411867
8.0458241 -1.983212 -1.4460982
4.8097119 -1.8864007 -1.4685285
6.574193 -1.6185123 -1.5426593
3.8828344 -1.5263 -1.4229171
3.4880183 -0.85096401 -1.4307173
2.3724554 -0.94062793 -1.3311126
2.9058311 -0.70618612 -1.3756729
2.0780439 -0.82772869 -1.3204395
1.9433756 -0.46435848 -1.3187248
1.6201949 -0.65058261 -1.2935828
1.5525515 -0.36510897 -1.306712
1.3242196 -0.53780782 -1.3052964
1.2653208 -0.29199472 -1.3132045
1.0734694 -0.44052625 -1.3006575
1.0224428 -0.23147273 -1.2925408
0.90342218 -0.3736535 -1.2834408
nan nan nan
nan nan nan
nan nan nan
nan nan nan
25.999537 -6.4752626 3.2666123
27.099045 -10.672269 2.7805445
25.952711 -6.4732208 1.8585795
21.330648 -8.4000444 1.0674591
25.940634 -6.4798222 0.61996031
nan nan nan
19.66577 -4.92029 -0.46984732
17.454943 -6.8804021 -0.87332541
20.006454 -5.0054913 -1.425229
14.277279 -5.6331582 -1.4017229
12.729208 -3.1856787 -1.5211512
9.5628977 -3.7761629 -1.4418833
8.0388527 -2.0112848 -1.4460982
4.7986293 -1.9014053 -1.4671528
6.5921474 -1.6473502 -1.5482405
3.8730893 -1.5380968 -1.4212909
3.4917812 -0.86480218 -1.4335171
2.3691576 -0.94890362 -1.3311126
2.9011474 -0.71578389 -1.3746179
2.0771303 -0.83577985 -1.3217252
1.9437604 -0.47162586 -1.3201187
1.6216078 -0.65773857 -1.2965981
1.5549974 -0.37140995 -1.3099227
1.3206469 -0.54173106 -1.3035879
1.2659824 -0.29680145 -1.3150059
1.0704155 -0.44364068 -1.2987671
1.0276462 -0.23640524 -1.3004102
0.89802045 -0.3750813 -1.2773963
nan nan nan
nan nan nan
nan nan nan
nan nan nan
26.036922 -6.5811758 3.2741857
nan nan nan
25.983147 -6.5772328 1.8623968
21.217665 -8.4412098 1.0632666
25.978424 -6.5856814 0.62141097
nan nan nan
19.532192 -4.9593959 -0.467062
17.495779 -6.9671659 -0.87658626
19.976776 -5.0722294 -1.4243659
14.252903 -5.6811161 -1.4012672
12.713198 -3.2288713 -1.520574
9.5174685 -3.7966719 -1.4370062
8.0628138 -2.0472028 -1.4517083
4.7696528 -1.9092028 -1.4602745
6.5863571 -1.670351 -1.5482405
3.858923 -1.5480816 -1.4180386
3.484242 -0.87585789 -1.4316505
2.3658307 -0.95716774 -1.3311126
2.8986311 -0.72590649 -1.3746179
2.0702295 -0.84140646 -1.3191538
1.9360552 -0.47692713 -1.3159367
1.6211463 -0.6641537 -1.2981057
1.5462382 -0.37504211 -1.3035015
1.3204327 -0.54703939 -1.3052964
1.261564 -0.30042353 -1.3114032
1.0718753 -0.44864494 -1.3025481
1.0253115 -0.23964447 -1.2984428
0.89806771 -0.37879294 -1.2794112
nan nan nan
nan nan nan
nan nan nan
nan nan nan
26.099159 -6.6987638 3.2850916
nan nan nan
26.07481 -6.7022123 1.8707259
21.107809 -8.487237 1.0593071
26.040081 -6.7078195 0.62349993
21.233597 -8.5421343 0
19.438856 -5.0116181 -0.46526316
17.523405 -7.052702 -0.87926483
19.996693 -5.1553717 -1.4271282
14.194041 -5.7209058 -1.3976209
12.641159 -3.259954 -1.5133579
9.4844551 -3.8257759 -1.4342192
8.0576401 -2.0773547 -1.4521399
4.7444668 -1.9202813 -1.4547718
6.5919909 -1.6975143 -1.5510311
3.8551402 -1.5637771 -1.4188515
3.4765134 -0.88747823 -1.4297841
2.356004 -0.96372908 -1.3276066
2.8871627 -0.73429859 -1.370398
2.0709479 -0.85098344 -1.3217252
1.9363079 -0.48452094 -1.3173307
1.6093774 -0.66654485 -1.2905674
1.5467149 -0.38116205 -1.3051069
1.3099117 -0.54856473 -1.2967539
1.2671442 -0.30688173 -1.3186086
1.0686398 -0.45211631 -1.3006575
1.0273875 -0.24428411 -1.3023776
0.89395368 -0.38091353 -1.2753816
nan nan nan
nan nan nan
26.059927 -6.7663383 5.1877651
nan nan nan
26.063614 -6.7867017 3.283577
nan nan nan
26.046431 -6.7919316 1.8703789
20.969315 -8.5166874 1.0538335
26.02495 -6.7960291 0.62367398
21.131855 -8.587019 0
19.32782 -5.0514159 -0.46300009
17.586588 -7.1495695 -0.88369024
20.049465 -5.2399344 -1.4321351
14.147322 -5.7566795 -1.3948864
12.620668 -3.2993453 -1.5122033
9.4625454 -3.8534691 -1.4328258
8.0435591 -2.1021976 -1.4508452
4.7291746 -1.9323633 -1.4520204
6.591042 -1.7205942 -1.5521474
3.8324349 -1.5693761 -1.4123468
3.466814 -0.89726335 -1.4269842
2.3548372 -0.97238195 -1.3287753
2.8825166 -0.74330473 -1.3693432
2.0720737 -0.85949349 -1.3242967
1.930666 -0.48992389 -1.3145427
1.6127905 -0.67391801 -1.2950904
1.5417221 -0.38536629 -1.3018962
1.3115418 -0.55410403 -1.3001709
1.259382 -0.3094433 -1.3114032
1.065711 -0.45482552 -1.2987671
1.0221127 -0.24643962 -1.2964755
0.8954013 -0.38505334 -1.2794112
nan nan nan
nan nan nan
26.049215 -6.8558412 5.1901326
nan nan nan
26.021767 -6.8680286 3.2811534
27.594076 -11.309189 2.8471498
25.982773 -6.8674364 1.8674289
20.8624 -8.5539589 1.0498739
25.980524 -6.8765397 0.62315178
21.089384 -8.6513529 0
19.223984 -5.092452 -0.46091112
17.67367 -7.2533741 -0.88928032
20.048855 -5.3108606 -1.4333436
14.095916 -5.7903142 -1.391696
12.583252 -3.334187 -1.5090282
9.4153728 -3.8707008 -1.4276004
8.0389252 -2.1294894 -1.4512769
4.7094111 -1.9425305 -1.4478934
6.6017928 -1.7467989 -1.5560542
3.8250253 -1.5811718 -1.4115337
3.4593318 -0.90758079 -1.4251176
2.3475213 -0.97848117 -1.326438
2.8778427 -0.75228804 -1.3682882
2.0692122 -0.86636001 -1.3242967
1.9310414 -0.49683788 -1.3159367
1.6142194 -0.68081766 -1.2981057
1.5385771 -0.39000916 -1.3002908
1.309697 -0.55845028 -1.3001709
1.2617149 -0.31444839 -1.3150059
1.0641968 -0.45835707 -1.2987671
1.024289 -0.25055161 -1.3004102
0.89276361 -0.38742724 -1.2773963
nan nan nan
nan nan nan
25.999037 -6.9397664 5.1849232
nan nan nan
25.988047 -6.956255 3.2799418
27.662806 -11.455963 2.858568
26.030912 -6.9774566 1.8726346
20.779348 -8.6047487 1.0471954
25.9974 -6.9781981 0.62413824
21.112177 -8.7469282 0
19.118299 -5.1395292 -0.45882213
17.728985 -7.3484983 -0.89335632
20.173769 -5.4231386 -1.4437026
14.036527 -5.8232589 -1.3878219
12.54217 -3.3725519 -1.5055645
9.4018049 -3.9035428 -1.4276004
8.0096617 -2.153192 -1.4473929
4.6981654 -1.9571071 -1.4465177
6.602407 -1.7728775 -1.5577286
3.8151209 -1.5926902 -1.4099076
3.4582238 -0.92084897 -1.4260509
2.3563082 -0.99182522 -1.33345
2.8706837 -0.7616722 -1.3661783
2.0661755 -0.87357759 -1.3242967
1.9251902 -0.50286877 -1.3131487
1.6062148 -0.6843707 -1.2935828
1.542708 -0.39706877 -1.3051069
1.3109912 -0.56469703 -1.3035879
1.2589282 -0.31842956 -1.3132045
1.0640084 -0.46291071 -1.3006575
1.0203674 -0.25356925 -1.2964755
0.88863009 -0.38950038 -1.2733667
nan nan nan
nan nan nan
nan nan nan
nan nan nan
26.240181 -7.1268849 3.315083
27.730825 -11.603394 2.8699861
25.990725 -7.068892 1.8715936
20.692385 -8.6577129 1.0444005
25.955946 -7.0740275 0.62379009
21.19989 -8.8744593 0
19.017347 -5.1872149 -0.45684916
20.862106 -8.7373114 -1.053138
20.197069 -5.5088511 -1.4468104
13.981924 -5.8636279 -1.3846315
12.500973 -3.41066 -1.5021007
9.4050064 -3.9472823 -1.4303873
7.9945879 -2.1805925 -1.4460982
4.6751127 -1.9685965 -1.4417028
6.6029191 -1.7989837 -1.5594029
3.802444 -1.6045665 -1.4074682
3.4481075 -0.93170768 -1.423251
2.3504498 -0.99999839 -1.3322812
2.8700619 -0.77277601 -1.3672333
2.0628059 -0.88150471 -1.3242967
1.9213275 -0.5093925 -1.3117547
1.6090666 -0.69290715 -1.2981057
1.537532 -0.40175807 -1.3018962
1.3037971 -0.56753206 -1.2984624
1.2526565 -0.32197836 -1.3078004
1.0592312 -0.4656688 -1.2968765
1.0223799 -0.2582317 -1.3004102
0.89125121 -0.39456427 -1.2794112
nan nan nan
nan nan nan
nan nan nan
nan nan nan
26.246248 -7.2269979 3.319021
nan nan nan
25.963488 -7.1589098 1.87142
20.604528 -8.7055855 1.0414889
26.035944 -7.1886559 0.62628525
21.224045 -8.9717741 0
18.902763 -5.2269344 -0.45452812
20.842981 -8.8149376 -1.0537202
20.175316 -5.5786548 -1.4466377
13.934894 -5.8983126 -1.3818969
12.462664 -3.4469995 -1.4989257
9.3964243 -3.9803813 -1.431084
7.9726868 -2.2045522 -1.4435091
4.6575012 -1.9793836 -1.4382638
6.6059961 -1.824613 -1.5616355
3.7992768 -1.6180947 -1.4082813
3.4425969 -0.94312692 -1.4223177
2.3410311 -1.0051658 -1.3287753
2.8651597 -0.78219461 -1.3661783
2.0559356 -0.88663799 -1.3217252
1.9215426 -0.51663214 -1.3131487
1.6085879 -0.69903672 -1.2996135
1.5361202 -0.40712261 -1.3018962
1.3069168 -0.57406378 -1.3035879
1.2566173 -0.32743004 -1.3132045
1.0606686 -0.47051266 -1.3006575
1.0260044 -0.26275507 -1.3063122
0.88582015 -0.39584923 -1.2733667
nan nan nan
nan nan nan
nan nan nan
nan nan nan
nan nan nan
nan nan nan
25.468792 -7.1135168 1.83741
20.506634 -8.7444725 1.0379951
25.836248 -7.2258277 0.62204927
21.21487 -9.0509367 0
18.802006 -5.2627239 -0.45249712
20.868759 -8.9075432 -1.0565153
20.152885 -5.6406646 -1.4462924
13.912967 -5.9435115 -1.3816689
12.430249 -3.4801133 -1.4963279
9.383173 -4.0115185 -1.431084
7.9301481 -2.2196422 -1.4370359
4.6464949 -1.9929208 -1.436888
6.6025786 -1.8460127 -1.5621936
3.7917185 -1.6297498 -1.4074682
3.4440873 -0.95517385 -1.4241843
2.3356578 -1.0120428 -1.3276066
2.8626883 -0.79119194 -1.3661783
2.054949 -0.89430851 -1.3230109
1.91991 -0.52266628 -1.3131487
1.6009058 -0.70168304 -1.2950904
1.5403891 -0.41342679 -1.306712
1.2984376 -0.5751974 -1.2967539
1.2572016 -0.33203405 -1.3150059
1.0576935 -0.47317091 -1.2987671
1.0236795 -0.26559418 -1.3043449
0.88322473 -0.39801806 -1.2713519
nan nan nan
nan nan nan
nan nan nan
nan nan nan
25.427494 -7.18818 3.2214742
nan nan nan
25.364614 -7.1799669 1.8316838
20.338367 -8.7567329 1.0310076
25.32753 -7.1790156 0.61038584
21.217587 -9.1397753 0
18.696033 -5.3070426 -0.45040813
nan nan nan
20.139273 -5.7165332 -1.4468104
13.864706 -5.9802046 -1.3789344
12.398298 -3.5202265 -1.4940187
9.3782043 -4.0481744 -1.4324775
7.9290662 -2.2507081 -1.4383305
4.6373043 -2.0081718 -1.4362001
6.6121812 -1.8748474 -1.5661005
3.7881749 -1.6439177 -1.4082813
3.4405634 -0.96779066 -1.4241843
2.3361588 -1.0219649 -1.329944
2.8685007 -0.80411845 -1.370398
2.0518148 -0.9014762 -1.3230109
1.9179814 -0.52969962 -1.3131487
1.5983254 -0.70754015 -1.2950904
1.5351635 -0.41806936 -1.3035015
1.2929916 -0.57845563 -1.2933369
1.2577105 -0.33686504 -1.3168073
1.0574414 -0.47772142 -1.3006575
1.025685 -0.27012098 -1.3082795
0.88310522 -0.40186962 -1.2733667
nan nan nan
nan nan nan
nan nan nan
nan nan nan
26.371901 -7.5595527 3.3447711
nan nan nan
nan nan nan
20.196215 -8.7834005 1.0254176
25.282965 -7.2713795 0.60997963
21.353575 -9.2913074 0
18.599594 -5.3534193 -0.44855127
nan nan nan
20.063061 -5.7744503 -1.4428394
13.818821 -6.0234461 -1.3766556
12.363834 -3.5594659 -1.4914209
9.3489771 -4.0782118 -1.4303873
7.9183984 -2.279074 -1.437899
4.629559 -2.0259628 -1.4362001
6.6146336 -1.9017596 -1.5683329
3.7731764 -1.6546487 -1.4050289
3.4258399 -0.97722155 -1.419518
2.3342381 -1.0318229 -1.3311126
2.8655343 -0.81462657 -1.370398
2.0424623 -0.90673184 -1.3191538
1.9160272 -0.53672588 -1.3131487
1.5974158 -0.7144888 -1.2965981
1.526228 -0.42166522 -1.2970804
1.2957461 -0.58568054 -1.2984624
1.2497126 -0.33988783 -1.3096018
1.0570859 -0.48246101 -1.3025481
1.0216575 -0.27326927 -1.3043449
0.88296944 -0.40572566 -1.2753816
nan nan nan
nan nan nan
nan nan nan
nan nan nan
nan nan nan
nan nan nan
nan nan nan
20.094553 -8.8227158 1.0218074
26.357784 -7.6751151 0.63655603
21.547606 -9.4653502 0
18.504013 -5.3959308 -0.4466944
20.182919 -8.8699293 -1.0264689
19.975739 -5.8249063 -1.4380052
13.757751 -6.0511894 -1.3725536
12.332262 -3.5970426 -1.4891118
9.3444653 -4.1131835 -1.4317807
7.9411287 -2.3156531 -1.4435091
4.6338067 -2.0461631 -1.4396394
6.607955 -1.9248375 -1.5683329
3.7611847 -1.6642786 -1.4025897
3.4224076 -0.98917407 -1.419518
2.3227332 -1.0359495 -1.326438
2.8583162 -0.82337326 -1.3682882
2.0433557 -0.91525692 -1.3217252
1.914142 -0.54341072 -1.3131487
1.5914048 -0.71813643 -1.2935828
1.5302861 -0.42853051 -1.3018962
1.2888191 -0.58769321 -1.2933369
1.2535954 -0.3453998 -1.3150059
1.0525116 -0.4845883 -1.2987671
1.0207456 -0.2766557 -1.3043449
0.87886614 -0.40755197 -1.2713519
nan nan nan
nan nan nan
nan nan nan
nan nan nan
26.479349 -7.7857714 3.365068
nan nan nan
26.453186 -7.7881079 1.9161884
20.08345 -8.897397 1.0227391
26.4137 -7.7865005 0.63852894
21.504671 -9.5316858 0
18.403065 -5.4292946 -0.44466344
20.087193 -8.907445 -1.0230916
19.998007 -5.8996253 -1.4409403
13.753538 -6.1038504 -1.3741488
12.299464 -3.6294465 -1.4865141
9.2923155 -4.1270576 -1.4258586
7.9314528 -2.3398933 -1.4430774
4.6379714 -2.0664139 -1.4430785
6.6135645 -1.9490278 -1.5711236
3.7470126 -1.6728822 -1.3993373
3.4192832 -0.9999209 -1.419518
2.3192852 -1.0436463 -1.326438
2.857892 -0.83298117 -1.3693432
2.0422623 -0.92291296 -1.3230109
1.9044437 -0.54714036 -1.3075727
1.5873247 -0.72230953 -1.292075
1.5233979 -0.43177819 -1.2970804
1.2902801 -0.5932703 -1.2967539
1.2424184 -0.34678239 -1.3041977
1.050984 -0.48789248 -1.2987671
1.0154051 -0.2786501 -1.2984428
0.8735649 -0.40841842 -1.2653074
nan nan nan
nan nan nan
nan nan nan
nan nan nan
26.540014 -7.904356 3.376277
nan nan nan
26.471251 -7.8939366 1.9194851
20.008955 -8.9480715 1.0205264
26.400728 -7.8829432 0.63887709
20.045074 -8.9684277 0
18.306412 -5.4738059 -0.44280657
20.019506 -8.9611788 -1.0212282
19.933239 -5.9600272 -1.4378326
13.791216 -6.1782942 -1.3800738
12.276562 -3.6716573 -1.4853594
9.3365803 -4.1858125 -1.434916
7.9393392 -2.3738809 -1.4460982
4.6394963 -2.0865378 -1.44583
6.6110473 -1.9746479 -1.5722399
3.74546 -1.6878966 -1.4009635
3.4089231 -1.0104737 -1.416718
2.3176396 -1.0526515 -1.3276066
2.8417749 -0.83960849 -1.3630134
2.0390284 -0.93003619 -1.3230109
1.906412 -0.55527198 -1.3103607
1.5937234 -0.73229301 -1.2996135
1.521805 -0.4373588 -1.2970804
1.2814811 -0.59490901 -1.2899199
1.2445388 -0.35205296 -1.3078004
1.0477091 -0.49104339 -1.2968765
1.0143769 -0.28236985 -1.2984428
0.8733986 -0.4122532 -1.2673223
nan nan nan
nan nan nan
nan nan nan
nan nan nan
26.574036 -8.0155764 3.3841534
19.709089 -8.8966179 2.0635831
26.54381 -8.0165663 1.9267731
19.907043 -8.9860048 1.0169162
26.456785 -8.0003633 0.640908
19.938463 -9.0043812 0
18.193901 -5.5094357 -0.4405435
19.91301 -8.9970675 -1.0173851
18.210323 -5.5144134 -1.3147329
13.746883 -6.2161355 -1.377795
12.232772 -3.7051358 -1.4816071
9.2474909 -4.1846814 -1.4234201
7.9427896 -2.4051445 -1.4482559
4.6387491 -2.1057031 -1.4478934
6.5924497 -1.9941889 -1.5694492
3.7395453 -1.7009604 -1.4009635
3.4098186 -1.0236976 -1.4185847
2.3219833 -1.0644264 -1.3322812
2.8431704 -0.85081875 -1.3651233
2.0396626 -0.93894529 -1.3255824
1.8964972 -0.55958498 -1.3047847
1.5875413 -0.73616844 -1.2965981
1.5276333 -0.44479799 -1.3035015
1.2810479 -0.60015601 -1.2916285
1.2449698 -0.35686883 -1.3096018
1.048943 -0.49610355 -1.3006575
1.0074414 -0.28425172 -1.2905736
0.87328857 -0.41593987 -1.2693371
nan nan nan
nan nan nan
nan nan nan
nan nan nan
26.594315 -8.128149 3.3905151
19.59483 -8.9316292 2.0550196
26.55479 -8.1262026 1.9297229
19.785357 -9.0185041 1.0123743
26.510923 -8.1228971 0.64293897
19.798424 -9.028635 0
18.085175 -5.5489683 -0.43839648
19.782209 -9.0254097 -1.0123774
nan nan nan
13.778356 -6.2913036 -1.3832642
12.233356 -3.7543151 -1.483339
9.2298384 -4.2175169 -1.4230716
7.929213 -2.4327974 -1.4473929
4.6288157 -2.1216884 -1.4472055
6.5967474 -2.0219045 -1.5722399
3.731138 -1.7136672 -1.4001504
3.3993857 -1.034168 -1.4157848
2.3120525 -1.0701393 -1.3287753
2.8400328 -0.86123377 -1.3651233
2.0264909 -0.94188595 -1.3191538
1.8924444 -0.56594044 -1.3033906
1.5902474 -0.74452668 -1.3011211
1.5259928 -0.45039406 -1.3035015
1.2755427 -0.60328043 -1.2882115
1.2403219 -0.36046976 -1.305999
1.0441685 -0.498528 -1.2968765
1.0138147 -0.29004106 -1.3004102
0.87175822 -0.41913781 -1.2693371
nan nan nan
nan nan nan
nan nan nan
nan nan nan
26.684317 -8.2576008 3.4056623
19.479883 -8.9614801 2.0462179
26.595352 -8.2402458 1.9347551
19.542774 -8.9904261 1.0015436
26.534927 -8.2316751 0.64421558
19.739536 -9.0851431 0
17.994089 -5.5898294 -0.43665567
19.650778 -9.048439 -1.0072532
nan nan nan
13.815096 -6.3664608 -1.3891892
12.170373 -3.7815304 -1.4772774
9.170104 -4.2289653 -1.4161043
7.934783 -2.4648395 -1.4499822
4.6257434 -2.1398532 -1.4485812
6.5873218 -2.0441978 -1.5716817
3.7187006 -1.7236948 -1.3977112
3.402406 -1.0480714 -1.4185847
2.3103042 -1.0791405 -1.329944
2.8391767 -0.87180555 -1.3661783
2.0251307 -0.94986647 -1.3204395
1.8884705 -0.57194412 -1.3019967
1.5840348 -0.74836421 -1.2981057
1.5188998 -0.45408127 -1.2986857
1.2750748 -0.60851836 -1.2899199
1.2440482 -0.36625412 -1.3114032
1.0453662 -0.5035969 -1.3006575
1.0127962 -0.29357818 -1.3004102
0.87693816 -0.42542809 -1.2794112
nan nan nan
nan nan nan
nan nan nan
nan nan nan
26.694679 -8.3579044 3.4105091
19.395197 -8.9964495 2.040271
26.634514 -8.3492765 1.9396136
19.449429 -9.0257435 0.99828279
26.574255 -8.3405743 0.64584029
nan nan nan
17.902515 -5.6231232 -0.4348568
19.532341 -9.0725155 -1.0027113
nan nan nan
13.753273 -6.3933425 -1.3850873
12.170279 -3.8234651 -1.4787207
9.131341 -4.24786 -1.4122723
7.9270005 -2.4897552 -1.4499822
4.6229773 -2.1572156 -1.4499569
6.5738907 -2.062696 -1.5700073
3.7065411 -1.7330095 -1.3952719
3.392452 -1.0566907 -1.4157848
2.2987194 -1.0830207 -1.3252693
2.8342583 -0.88005042 -1.3651233
2.0239069 -0.95749581 -1.3217252
1.8906344 -0.5790841 -1.3047847
1.5726776 -0.74904203 -1.2905674
1.526643 -0.46160758 -1.306712
1.2682273 -0.61013812 -1.2847944
1.2411646 -0.36988631 -1.3096018
1.0481883 -0.50903296 -1.306329
1.0059425 -0.2950401 -1.2925408
0.87692493 -0.42883509 -1.281426
nan nan nan
nan nan nan
nan nan nan
nan nan nan
26.743412 -8.47577 3.4205062
19.287724 -9.0326376 2.0324211
26.624228 -8.4482307 1.9410018
19.404234 -9.0872231 0.99758399
26.599768 -8.4506865 0.64717495
nan nan nan
17.822241 -5.6697669 -0.43340611
19.444021 -9.1141386 -0.99979979
nan nan nan
13.708335 -6.4307346 -1.3828084
12.139616 -3.8627782 -1.4767002
9.100771 -4.2723408 -1.4098337
7.9272094 -2.5217757 -1.4517083
4.624115 -2.1774392 -1.4527082
6.5546732 -2.0830905 -1.5672168
3.687644 -1.7398775 -1.3903934
3.3929808 -1.0705101 -1.4176514
2.2989151 -1.0929396 -1.3276066
2.8331769 -0.89111084 -1.3661783
2.014751 -0.96177757 -1.3178681
1.8865163 -0.58539742 -1.3033906
1.5753123 -0.75739563 -1.2950904
1.5194405 -0.46552566 -1.3018962
1.269263 -0.61638296 -1.2882115
1.2348834 -0.37272558 -1.3041977
1.0433812 -0.5114243 -1.3025481
1.0092944 -0.30003014 -1.2984428
0.87402207 -0.43138734 -1.2794112
nan nan nan
nan nan nan
nan nan nan
nan nan nan
26.775965 -8.5942039 3.4286859
19.168997 -9.0628405 2.0233819
26.716555 -8.5854225 1.9500248
19.330164 -9.1390638 0.99548775
26.652771 -8.5803242 0.64926392
nan nan nan
17.729969 -5.7120671 -0.43166533
19.385656 -9.1735954 -0.99851871
17.773186 -5.7259908 -1.2902164
13.656546 -6.4705276 -1.3800738
12.165562 -3.9201863 -1.4816071
9.0798273 -4.3051314 -1.4091371
7.9202571 -2.5515676 -1.4521399
4.6135502 -2.1941452 -1.4520204
6.5562744 -2.1100833 -1.5694492
3.6809363 -1.7540243 -1.3903934
3.3868246 -1.0822345 -1.416718
2.2947018 -1.1017587 -1.3276066
2.8212509 -0.8987447 -1.3619584
2.0110431 -0.9695065 -1.3178681
1.8823777 -0.59168839 -1.3019967
1.5688069 -0.76169157 -1.292075
1.5158927 -0.4705267 -1.3002908
1.2636126 -0.61963874 -1.2847944
1.2334431 -0.37746441 -1.3041977
1.038481 -0.51396847 -1.2987671
1.0096132 -0.30434406 -1.3004102
0.87243515 -0.43458787 -1.2794112
nan nan nan
nan nan nan
nan nan nan
nan nan nan
26.80481 -8.7067795 3.4362593
19.067617 -9.0964727 2.0160077
26.686424 -8.678628 1.9500248
19.284622 -9.2000313 0.994789
26.683588 -8.6879988 0.65071458
nan nan nan
17.667147 -5.7599821 -0.43062085
19.389572 -9.2584238 -1.0003821
17.760206 -5.7903152 -1.2907344
13.646244 -6.5211477 -1.3812132
12.180136 -3.9718614 -1.4850707
9.0052071 -4.3063679 -1.3997312
7.9253507 -2.5837746 -1.4547291
4.6084151 -2.2104728 -1.4527082
6.5372815 -2.1291869 -1.5666586
3.6750996 -1.766221 -1.3903934
3.3830264 -1.09405 -1.416718
2.2870591 -1.1074321 -1.3252693
2.8180964 -0.90858716 -1.3619584
2.0135984 -0.97898871 -1.3217252
1.8763438 -0.59700257 -1.2992088
1.5680624 -0.76776934 -1.2935828
1.5087528 -0.47410172 -1.295475
1.2615509 -0.62382567 -1.2847944
1.2338419 -0.38206145 -1.305999
1.0323851 -0.51520735 -1.2930956
1.011552 -0.30858159 -1.3043449
0.86695135 -0.43562517 -1.2733667
nan nan nan
nan nan nan
26.886768 -8.8112917 5.4520311
nan nan nan
26.848877 -8.8196192 3.4456503
18.969421 -9.1228857 2.0086334
26.742788 -8.7951183 1.9562715
19.18425 -9.2303581 0.99117881
26.716352 -8.7967558 0.65222329
nan nan nan
17.589619 -5.7959099 -0.42917016
19.43301 -9.3584337 -1.0042251
17.789305 -5.8616853 -1.2941874
13.588663 -6.5490651 -1.3775671
12.212412 -4.0248666 -1.490555
8.9708099 -4.3265238 -1.396596
7.9148555 -2.6078901 -1.4542977
4.5967336 -2.2236474 -1.4513327
6.532876 -2.1504753 -1.5672168
3.6713486 -1.7794305 -1.3912063
3.3861878 -1.1068298 -1.419518
2.2833741 -1.1150103 -1.3252693
2.8130727 -0.91673559 -1.3609034
2.0103412 -0.98566067 -1.3217252
1.8882943 -0.60732305 -1.3089666
1.5602794 -0.77004194 -1.2890598
1.503601 -0.47768542 -1.2922645
1.2612168 -0.62860298 -1.2865028
1.2342236 -0.38666528 -1.3078004
1.0322211 -0.51918674 -1.2949861
1.0105776 -0.31175792 -1.3043449
0.86821532 -0.43969187 -1.2773963
nan nan nan
nan nan nan
nan nan nan
nan nan nan
26.869736 -8.930501 3.4523151
18.86422 -9.1575651 2.0010214
26.79475 -8.915967 1.9623448
19.066547 -9.2558165 0.98675334
26.751881 -8.9120722 0.65384805
19.249769 -9.348938 0
17.525579 -5.8461103 -0.42812565
19.570925 -9.5091734 -1.0130761
19.423885 -6.4790707 -1.4150426
13.456019 -6.543097 -1.3664007
12.197578 -4.0696006 -1.490555
8.9690075 -4.3643126 -1.3986861
7.9145885 -2.6399956 -1.4560237
4.5997415 -2.2449553 -1.4547718
6.5318861 -2.1767137 -1.568891
3.6566224 -1.7880764 -1.387954
3.3755009 -1.1170521 -1.416718
2.2834313 -1.124931 -1.3276066
2.8032346 -0.92491502 -1.3577385
2.0011261 -0.98981404 -1.3178681
1.8821074 -0.6129601 -1.3061787
1.5610162 -0.77753317 -1.292075
1.5073165 -0.48494405 -1.2970804
1.2540176 -0.63075185 -1.2813774
1.2378273 -0.39253151 -1.3132045
1.0288541 -0.52222252 -1.2930956
1.0050069 -0.31409287 -1.2984428
0.86922961 -0.44422594 -1.281426
nan nan nan
nan nan nan
nan nan nan
nan nan nan
26.886217 -9.045537 3.4586768
18.761253 -9.1926918 1.9936472
nan nan nan
18.971949 -9.2959623 0.98360902
26.717466 -9.0147257 0.65384805
nan nan nan
17.444832 -5.8903236 -0.42667496
19.540422 -9.583046 -1.013309
19.35038 -6.5334697 -1.411417
nan nan nan
12.194345 -4.1182499 -1.4919982
8.9432983 -4.394351 -1.3972926
7.9048591 -2.6689863 -1.4560237
4.5846205 -2.2594099 -1.4527082
6.5215545 -2.1998615 -1.5683329
3.6454914 -1.8000079 -1.3863277
3.3779833 -1.1316218 -1.419518
2.277117 -1.1327041 -1.326438
2.7955251 -0.93375075 -1.3556286
1.9934764 -0.99557048 -1.3152965
1.8759046 -0.6185599 -1.3033906
1.5544586 -0.78172433 -1.2890598
1.5037055 -0.48987505 -1.295475
1.2564636 -0.63805056 -1.2865028
1.2330078 -0.39622864 -1.3096018
1.0282955 -0.52691877 -1.2949861
1.0023214 -0.31748819 -1.2964755
0.87022245 -0.44877338 -1.2854557
nan nan nan
nan nan nan
nan nan nan
nan nan nan
26.929659 -9.1649103 3.4683709
18.664358 -9.2261372 1.9867487
nan nan nan
18.780443 -9.2835426 0.97534049
26.845915 -9.1573219 0.65773588
nan nan nan
17.388687 -5.9390697 -0.42580456
19.538193 -9.6666985 -1.0149394
19.358143 -6.6114521 -1.4136615
nan nan nan
12.154044 -4.1519656 -1.4888232
8.9308949 -4.4250827 -1.3976409
7.8931642 -2.6957679 -1.4555923
4.5727992 -2.2724595 -1.4513327
6.5161428 -2.2233987 -1.568891
3.6373863 -1.8110321 -1.3855146
3.3784068 -1.144892 -1.4213845
2.2693994 -1.1382639 -1.3241006
2.7922485 -0.94350332 -1.3556286
1.9959058 -1.0050749 -1.3191538
1.8776729 -0.62641245 -1.3061787
1.5607443 -0.79139686 -1.2965981
1.4983438 -0.49392769 -1.2922645
1.2494719 -0.63970917 -1.2813774
1.2382864 -0.40244296 -1.3168073
1.027994 -0.53108013 -1.2968765
1.0056745 -0.32220879 -1.3023776
0.86078453 -0.44768727 -1.2733667
nan nan nan
nan nan nan
nan nan nan
nan nan nan
nan nan nan
18.559549 -9.2469854 1.9786611
22.827921 -7.8628316 1.677424
18.655691 -9.2989702 0.97044921
26.857935 -9.2609577 0.65878034
nan nan nan
17.317961 -5.97574 -0.42452794
nan nan nan
19.285404 -6.6543436 -1.4098631
nan nan nan
12.124507 -4.1844606 -1.4868026
8.9028845 -4.4480329 -1.3955507
7.8776727 -2.7181444 -1.4542977
4.5716834 -2.290844 -1.4533961
6.4999094 -2.2406852 -1.5666586
3.6313605 -1.823084 -1.3855146
3.370404 -1.1540005 -1.419518
2.2715261 -1.1487808 -1.3276066
2.7871251 -0.95154035 -1.3545737
1.9944724 -1.0126605 -1.3204395
1.8658584 -0.62900704 -1.2992088
1.5600225 -0.79721177 -1.2981057
1.5058815 -0.50164437 -1.3002908
1.2490765 -0.64447129 -1.2830858
1.2287047 -0.40386006 -1.3078004
1.029219 -0.53582489 -1.3006575
0.99878144 -0.3234835 -1.2945082
0.86068273 -0.45108026 -1.2753816
nan nan nan
nan nan nan
nan nan nan
nan nan nan
nan nan nan
18.46328 -9.283637 1.9720005
22.691996 -7.9047403 1.6694419
18.574036 -9.3393478 0.9678871
23.061213 -8.0423365 0.56622726
nan nan nan
17.317181 -6.0465851 -0.42505023
nan nan nan
19.223213 -6.711834 -1.4071008
nan nan nan
12.071576 -4.2157779 -1.4821843
8.8939362 -4.4824271 -1.396596
7.8769565 -2.7502432 -1.4560237
4.5529366 -2.3013623 -1.4499569
6.5123639 -2.2717102 -1.5716817
3.61865 -1.8325413 -1.3830755
3.3705354 -1.1678613 -1.4213845
2.2615991 -1.1536849 -1.3241006
2.7921906 -0.96470237 -1.3587935
1.9890182 -1.0186371 -1.3191538
1.8674707 -0.63717645 -1.3019967
1.5570924 -0.80291855 -1.2981057
1.5040327 -0.50716031 -1.3002908
1.2450887 -0.64819914 -1.2813774
1.2272874 -0.40814656 -1.3078004
1.0243553 -0.53806514 -1.2968765
1.003458 -0.32904667 -1.3023776
0.85379845 -0.4514488 -1.2673223
nan nan nan
nan nan nan
nan nan nan
nan nan nan
nan nan nan
18.363586 -9.3099203 1.9646262
22.567816 -7.9499369 1.6623275
18.55023 -9.4086466 0.96835297
22.952858 -8.094533 0.5642544
nan nan nan
17.29232 -6.1023149 -0.42493415
21.829067 -11.081678 -1.1400163
19.113823 -6.7448459 -1.4007127
nan nan nan
12.125443 -4.2797413 -1.490555
8.8605824 -4.5044661 -1.393809
7.8608265 -2.7738929 -1.4547291
4.5448756 -2.3172412 -1.4499569
6.4887056 -2.2876275 -1.5677749
3.6122313 -1.8451617 -1.3830755
3.3732126 -1.181327 -1.4241843
2.2595222 -1.162585 -1.3252693
2.7782738 -0.97022945 -1.3535187
1.9892582 -1.0275458 -1.3217252
1.8574964 -0.64067 -1.2964208
1.5526507 -0.80716085 -1.2965981
1.4987125 -0.51091492 -1.2970804
1.2461612 -0.65402693 -1.2847944
1.2209224 -0.41078141 -1.3023963
1.0196778 -0.5399211 -1.2930956
1.0023613 -0.33237246 -1.3023776
0.85360068 -0.45497769 -1.2693371
nan nan nan
nan nan nan
nan nan nan
nan nan nan
nan nan nan
18.272785 -9.3401756 1.9582036
22.435596 -7.9871025 1.6545192
18.478907 -9.4496393 0.96625674
22.817589 -8.1320162 0.56158513
nan nan nan
17.295534 -6.1680179 -0.42551446
21.816654 -11.166524 -1.1412973
19.081955 -6.8048429 -1.400022
13.328311 -6.8268151 -1.3675401
12.069081 -4.3049183 -1.4853594
8.8301764 -4.5259161 -1.3913704
7.8585434 -2.8024242 -1.4560237
4.5328918 -2.3301003 -1.4485812
6.4971542 -2.3148513 -1.5716817
3.597688 -1.8527958 -1.379823
3.3649027 -1.190962 -1.4223177
2.2517331 -1.1680328 -1.3229319
2.7793171 -0.98094207 -1.3556286
1.9801379 -1.0311599 -1.3178681
1.8651643 -0.65022826 -1.3033906
1.5482007 -0.81137705 -1.2950904
1.5006361 -0.51712424 -1.3002908
1.245597 -0.6590122 -1.2865028
1.2162684 -0.41371918 -1.2987936
1.019323 -0.54407328 -1.2949861
0.99539745 -0.33375105 -1.2945082
0.85469055 -0.4592146 -1.2733667
nan nan nan
nan nan nan
nan nan nan
nan nan nan
nan nan nan
18.167656 -9.370575 1.9505916
22.341875 -8.0417261 1.6496606
18.385887 -9.4831696 0.96311229
22.699711 -8.1794281 0.55938011
nan nan nan
17.329237 -6.2517152 -0.42690709
21.826357 -11.267817 -1.1438595
nan nan nan
13.235835 -6.8378649 -1.3604757
12.006501 -4.3322768 -1.4795865
8.798933 -4.5487504 -1.3889319
7.8459029 -2.8303738 -1.4555923
4.5119309 -2.3392656 -1.4444543
6.4656982 -2.3303943 -1.5661005
3.5995884 -1.8697065 -1.3830755
3.362699 -1.2040672 -1.423251
2.2535138 -1.1789644 -1.326438
2.7671626 -0.9880811 -1.3514087
1.9822177 -1.0410624 -1.3217252
1.8549361 -0.65430957 -1.2978147
1.5381725 -0.81330168 -1.2890598
1.4914875 -0.52010983 -1.2938697
1.2383479 -0.66098577 -1.2813774
1.2164574 -0.4185223 -1.3005948
1.0173221 -0.54780567 -1.2949861
0.99416751 -0.3373971 -1.2945082
0.85040361 -0.46092582 -1.2693371
nan nan nan
nan nan nan
nan nan nan
nan nan nan
nan nan nan
18.071381 -9.4049234 1.943931
22.321627 -8.1269712 1.6503547
18.284552 -9.5158997 0.95961857
22.588299 -8.2374229 0.5574072
nan nan nan
17.322643 -6.3211837 -0.42731327
21.873495 -11.393899 -1.1485177
nan nan nan
13.145472 -6.8552432 -1.3538671
11.908889 -4.3464704 -1.4694841
8.7814007 -4.5825024 -1.3889319
7.8377895 -2.8599546 -1.4560237
4.5007863 -2.3554575 -1.4437665
6.4365053 -2.3465719 -1.5610774
3.5840096 -1.8791182 -1.379823
3.3604445 -1.2171724 -1.4241843
2.2431104 -1.1845071 -1.3229319
2.7741845 -1.0020572 -1.3566836
1.9763125 -1.0476595 -1.3204395
1.8505703 -0.66040915 -1.2964208
1.5350385 -0.81920189 -1.2890598
1.4913799 -0.52620739 -1.295475
1.2358009 -0.66573584 -1.2813774
1.2164798 -0.42375642 -1.3023963
1.0152111 -0.55170786 -1.2949861
0.98994386 -0.34021816 -1.2905736
0.85259789 -0.46618134 -1.2753816
nan nan nan
nan nan nan
nan nan nan
nan nan nan
nan nan nan
17.992167 -9.4436512 1.9389354
22.227581 -8.1807251 1.645496
18.193735 -9.5494843 0.95659065
22.50457 -8.2915506 0.55601454
nan nan nan
17.321575 -6.3893933 -0.42783549
21.853493 -11.480633 -1.1495659
nan nan nan
13.111649 -6.8930035 -1.3527275
11.909954 -4.3940268 -1.4715046
8.7508221 -4.6035256 -1.3864933
7.8254485 -2.8864448 -1.4555923
4.4908252 -2.3692472 -1.4430785
6.377964 -2.3505044 -1.5487987
3.5756691 -1.889887 -1.3790098
3.3496404 -1.2265074 -1.4213845
2.2411201 -1.1929795 -1.3241006
2.7621505 -1.0086324 -1.3524637
1.9709377 -1.0531951 -1.3191538
1.8463007 -0.66616315 -1.2950268
1.5323133 -0.82428771 -1.2890598
1.4877274 -0.53076929 -1.2938697
1.2351887 -0.67070419 -1.2830858
1.2101586 -0.42607269 -1.2969921
1.0076448 -0.55191404 -1.2874241
0.99026889 -0.34400076 -1.2925408
0.84837753 -0.46771774 -1.2713519
nan nan nan
nan nan nan
nan nan nan
nan nan nan
nan nan nan
17.89311 -9.4714642 1.9317992
22.089027 -8.2174063 1.6373407
18.105116 -9.5837212 0.95367914
22.416935 -8.3482561 0.55456388
nan nan nan
17.374109 -6.4777489 -0.42969239
21.819902 -11.560353 -1.1499153
nan nan nan
nan nan nan
11.908504 -4.4407768 -1.4732363
8.7325125 -4.6328831 -1.386145
7.8176327 -2.9146028 -1.4560237
4.471921 -2.3792593 -1.4396394
6.3217583 -2.3549068 -1.5370779
3.5607078 -1.8979044 -1.3757576
3.3344603 -1.234175 -1.416718
2.2349958 -1.1997482 -1.3229319
2.762867 -1.019834 -1.3545737
1.9634764 -1.0580302 -1.3165823
1.8420134 -0.6718955 -1.2936327
1.5294267 -0.82963151 -1.2890598
1.4912778 -0.53790027 -1.2986857
1.2360383 -0.67677075 -1.2865028
1.2152016 -0.43260437 -1.3041977
1.0085721 -0.55701661 -1.291205
0.98760515 -0.34694856 -1.2905736
0.85061401 -0.47284514 -1.2773963
nan nan nan
nan nan nan
nan nan nan
nan nan nan
nan nan nan
17.805059 -9.5045605 1.9258523
21.957491 -8.2558517 1.6297058
17.998856 -9.6080456 0.94983602
22.287071 -8.388607 0.55206871
nan nan nan
17.402849 -6.5577383 -0.430969
nan nan nan
18.584364 -7.0027895 -1.372398
nan nan nan
11.909199 -4.4884462 -1.4752569
8.7053747 -4.657495 -1.3844031
7.8189344 -2.9462118 -1.4581815
4.4508834 -2.388031 -1.4355123
6.2199807 -2.3417895 -1.5141948
3.5540614 -1.9103221 -1.3757576
3.3257864 -1.2441846 -1.4148515
2.2346795 -1.20965 -1.3252693
2.7507935 -1.0263104 -1.3503537
1.9616542 -1.0659034 -1.3178681
1.8338125 -0.67617553 -1.2894508
1.5317662 -0.83784366 -1.2935828
1.4803824 -0.53983605 -1.2906592
1.2304761 -0.67931098 -1.2830858
1.2169491 -0.43801004 -1.3078004
1.0051943 -0.55973446 -1.2893145
0.99366403 -0.35295326 -1.3004102
0.84638041 -0.47435656 -1.2733667
nan nan nan
nan nan nan
nan nan nan
nan nan nan
nan nan nan
17.714802 -9.5359774 1.9196675
21.783989 -8.2775383 1.6189474
17.916834 -9.6447678 0.94727391
22.143187 -8.4228239 0.54922539
nan nan nan
17.442921 -6.6424537 -0.43253574
nan nan nan
18.51552 -7.0507598 -1.3691176
nan nan nan
11.902741 -4.5335231 -1.4764115
8.6847067 -4.6855021 -1.3837063
7.8063016 -2.9726114 -1.45775
4.4256134 -2.3943958 -1.4300096
6.1867108 -2.3539636 -1.5080554
3.543216 -1.9204608 -1.3741313
3.3149133 -1.2533302 -1.4120517
2.2226877 -1.2132007 -1.3205947
2.7493157 -1.0367041 -1.3514087
1.9522837 -1.0696476 -1.3140107
1.8353322 -0.68401664 -1.2922387
1.5253423 -0.84125406 -1.2905674
1.4820879 -0.54631931 -1.2938697
1.2296906 -0.68449271 -1.2847944
1.2105216 -0.44048861 -1.3023963
1.0089324 -0.56645703 -1.2968765
0.98661232 -0.35435182 -1.2925408
0.84857857 -0.47950393 -1.2794112
nan nan nan
nan nan nan
27.366501 -10.474753 5.6466789
nan nan nan
27.345249 -10.488495 3.571068
17.62673 -9.5680685 1.9137205
21.578012 -8.2856035 1.60576
17.749186 -9.6345625 0.94016993
21.980665 -8.448966 0.54591781
nan nan nan
17.470945 -6.7230406 -0.43381235
20.947218 -11.380423 -1.1100864
18.455879 -7.1019173 -1.366528
nan nan nan
11.81036 -4.5456233 -1.4668863
8.6704741 -4.7169733 -1.3840548
7.7981753 -3.0007257 -1.4581815
4.402462 -2.4017651 -1.4251949
6.1875563 -2.37904 -1.510288
3.5344167 -1.9316823 -1.3733182
3.3061836 -1.2632413 -1.4101851
2.2203746 -1.2220192 -1.3217633
2.7350867 -1.0422685 -1.3461338
1.9504137 -1.0774945 -1.3152965
1.8348764 -0.6911478 -1.2936327
1.524138 -0.84754515 -1.292075
1.4801718 -0.55148953 -1.2938697
1.2257037 -0.68788475 -1.2830858
1.2138617 -0.44649518 -1.3078004
1.0012622 -0.56673837 -1.2893145
0.99262726 -0.36040369 -1.3023776
0.8456158 -0.48172665 -1.2773963
nan nan nan
nan nan nan
27.304588 -10.560479 5.641469
nan nan nan
27.250624 -10.561468 3.5634944
17.525555 -9.5924902 1.9063464
21.465252 -8.3284063 1.5995132
17.590588 -9.6281023 0.93353182
21.801928 -8.4677448 0.54220408
nan nan nan
17.517258 -6.8111477 -0.43555316
20.784721 -11.386271 -1.1035646
18.40773 -7.1572609 -1.3648014
nan nan nan
11.780532 -4.5814228 -1.4651544
8.6539555 -4.7472095 -1.3840548
7.801425 -3.0332782 -1.4607707
4.3940511 -2.4171181 -1.4251949
6.1701269 -2.3970971 -1.5080554
3.5193727 -1.9394395 -1.3700659
3.2995899 -1.2739404 -1.4092518
2.2122326 -1.227614 -1.3194259
2.731432 -1.0518093 -1.3461338
1.9522567 -1.0874323 -1.3191538
1.830512 -0.69681293 -1.2922387
1.5194321 -0.8518824 -1.2905674
1.4764432 -0.55598086 -1.2922645
1.2201216 -0.69035548 -1.2796689
1.2106694 -0.45012933 -1.305999
1.0035343 -0.57267261 -1.2949861
0.98556423 -0.36175808 -1.2945082
0.84008545 -0.48245272 -1.2713519
nan nan nan
nan nan nan
nan nan nan
nan nan nan
27.165064 -10.637528 3.5571327
17.439674 -9.6247425 1.9006374
21.43605 -8.4032831 1.5995132
17.500029 -9.6580687 0.93050396
21.618675 -8.4835548 0.53837436
nan nan nan
17.54921 -6.8941789 -0.4369458
20.690203 -11.428562 -1.1006532
18.445314 -7.2460866 -1.369463
nan nan nan
11.732109 -4.6098094 -1.4611133
8.637332 -4.777389 -1.3840548
7.7839131 -3.0577929 -1.4594761
4.3666759 -2.4219413 -1.4190043
6.1503782 -2.4141726 -1.5052648
3.5125813 -1.9517125 -1.3700659
3.2972841 -1.2862918 -1.4101851
2.2137167 -1.2385714 -1.3229319
2.7319701 -1.0629776 -1.3482438
1.9428439 -1.0910846 -1.3152965
1.8203168 -0.70022887 -1.2866627
1.5181838 -0.85816485 -1.292075
1.4709084 -0.5597744 -1.2890538
1.2208716 -0.6964249 -1.2830858
1.2139633 -0.4561705 -1.3114032
0.99728125 -0.57371461 -1.2893145
0.99008697 -0.36732471 -1.3023776
0.83967489 -0.48612761 -1.2733667
nan nan nan
nan nan nan
nan nan nan
nan nan nan
nan nan nan
17.355955 -9.6577225 1.8951662
21.346294 -8.4541874 1.5950016
17.402929 -9.6838732 0.92712665
21.530844 -8.535944 0.53692371
nan nan nan
17.571501 -6.9738288 -0.43810636
20.597824 -11.471548 -1.0978582
18.871967 -7.4897771 -1.4031298
nan nan nan
11.702095 -4.6452389 -1.4593815
8.6076307 -4.800272 -1.3819646
7.7777705 -3.086761 -1.4603392
4.3498058 -2.4324729 -1.416253
6.1147261 -2.4248569 -1.4985672
3.4974999 -1.9593354 -1.3668135
3.2884574 -1.2960958 -1.4083185
2.213228 -1.2484663 -1.3252693
2.7198026 -1.0691979 -1.3440241
1.9446174 -1.101035 -1.3191538
1.8275383 -0.71032441 -1.2936327
1.515179 -0.86345911 -1.292075
1.4725257 -0.5662747 -1.2922645
1.2152723 -0.69885671 -1.2796689
1.2123635 -0.46040523 -1.3114032
1.0037513 -0.58213699 -1.3006575
0.98301476 -0.36862975 -1.2945082
0.83542085 -0.48755601 -1.2693371
nan nan nan
nan nan nan
nan nan nan
nan nan nan
nan nan nan
17.25968 -9.6871586 1.8885056
21.23181 -8.499012 1.5887549
17.32159 -9.7219219 0.92468101
21.497093 -8.6138716 0.53686565
nan nan nan
17.615414 -7.0660896 -0.43984717
20.49468 -11.512714 -1.0945973
18.994852 -7.6192298 -1.4143521
nan nan nan
11.680382 -4.6862493 -1.4588041
8.5964518 -4.8354306 -1.3830097
7.7572618 -3.1115828 -1.458613
4.3283033 -2.441309 -1.4121259
6.0967484 -2.4436293 -1.4963348
3.4882374 -1.9709773 -1.3660004
3.2879951 -1.3098537 -1.4101851
2.2028773 -1.2532859 -1.3217633
2.7179725 -1.0799944 -1.3450789
1.9405689 -1.108155 -1.3191538
1.8171922 -0.71399301 -1.2880567
1.513732 -0.87000299 -1.2935828
1.4704403 -0.57166797 -1.2922645
1.2127026 -0.70330614 -1.2796689
1.2074283 -0.46361056 -1.3078004
0.99738061 -0.58332407 -1.2949861
0.98598909 -0.37385768 -1.3004102
0.83999455 -0.49438724 -1.2794112
nan nan nan
nan nan nan
nan nan nan
nan nan nan
nan nan nan
17.175947 -9.7191525 1.8830343
21.047096 -8.5104504 1.577129
17.246256 -9.758954 0.92246825
21.364952 -8.6476088 0.53431243
nan nan nan
17.620758 -7.1397352 -0.44060156
20.40222 -11.554644 -1.0918024
18.887238 -7.6527181 -1.4083093
nan nan nan
11.615618 -4.7074161 -1.4527427
8.5687542 -4.8593001 -1.3812678
7.7486353 -3.1395655 -1.4590445
4.3197551 -2.4564025 -1.4121259
6.0588126 -2.4530182 -1.4890792
3.4813361 -1.9831414 -1.3660004
3.2769463 -1.31873 -1.4073853
2.2023215 -1.2631705 -1.3241006
2.7226026 -1.0928451 -1.3492988
1.9329748 -1.1127787 -1.3165823
1.8185487 -0.72185779 -1.2908448
1.5106857 -0.87528163 -1.2935828
1.4648656 -0.57540244 -1.2890538
1.2086664 -0.70661086 -1.2779604
1.2058027 -0.46782246 -1.3078004
0.99533838 -0.58680207 -1.2949861
0.97890949 -0.37510699 -1.2925408
0.83318126 -0.49428058 -1.2713519
nan nan nan
nan nan nan
nan nan nan
nan nan nan
nan nan nan
17.126785 -9.7704144 1.8813692
20.855633 -8.5178757 1.5649825
17.279325 -9.8574629 0.92607844
21.165749 -8.6531086 0.5300765
nan nan nan
17.704451 -7.2456784 -0.44332883
20.359594 -11.624553 -1.0916859
18.809626 -7.6978245 -1.404511
nan nan nan
11.562342 -4.7328892 -1.4481244
8.549592 -4.8879523 -1.3809195
7.7285123 -3.1628664 -1.4573184
4.3090696 -2.4702702 -1.4114382
6.0276537 -2.464937 -1.483498
3.4743927 -1.9952815 -1.3660004
3.2680249 -1.3284169 -1.4055188
2.1959865 -1.2697421 -1.3229319
2.7145686 -1.1006424 -1.3471888
1.9253721 -1.1173627 -1.3140107
1.8160179 -0.72820127 -1.2908448
1.5041801 -0.87853301 -1.2905674
1.4575001 -0.57840133 -1.284238
1.2046219 -0.70989603 -1.2762519
1.2009314 -0.47077093 -1.3041977
0.99468821 -0.59111196 -1.2968765
0.97903448 -0.37907431 -1.2945082
0.83145082 -0.49718589 -1.2713519
nan nan nan
nan nan nan
nan nan nan
nan nan nan
nan nan nan
17.128372 -9.8427744 1.8849374
20.794991 -8.5736828 1.5625532
17.339632 -9.9682388 0.93108618
20.98214 -8.6593828 0.52618867
nan nan nan
17.799421 -7.3498969 -0.4462882
20.379374 -11.725634 -1.0948303
18.748463 -7.741652 -1.4017485
nan nan nan
11.522166 -4.7587667 -1.4449493
8.5269022 -4.9125681 -1.3798745
7.7185378 -3.1871305 -1.4573184
4.2904506 -2.4785297 -1.4079989
6.0131211 -2.4810755 -1.4818236
3.4636657 -2.0044212 -1.3643742
3.2531033 -1.3342844 -1.4008523
2.1860383 -1.2736742 -1.3194259
2.7131963 -1.1100215 -1.3482438
1.923506 -1.1248257 -1.3152965
1.8117964 -0.73312712 -1.2894508
1.4979751 -0.88123232 -1.2875521
1.4663584 -0.58723271 -1.2938697
1.2023859 -0.71367693 -1.2762519
1.205817 -0.47728759 -1.3114032
0.99282622 -0.59423393 -1.2968765
0.97640014 -0.38159105 -1.2925408
0.83494699 -0.50286496 -1.2794112
nan nan nan
nan nan nan
nan nan nan
nan nan nan
nan nan nan
17.264427 -10.005335 1.9039676
20.739611 -8.6356764 1.5606445
17.386831 -10.076298 0.93551165
20.894108 -8.7085409 0.52473801
nan nan nan
nan nan nan
20.487364 -11.883169 -1.1028659
18.747585 -7.8218369 -1.4038204
nan nan nan
11.493187 -4.796186 -1.4435061
8.5032797 -4.9385705 -1.3788292
7.6977124 -3.2116086 -1.4555923
4.2838497 -2.4947019 -1.4086868
6.0017376 -2.502161 -1.4812654
3.4525654 -2.0141149 -1.362748
3.235332 -1.34088 -1.3952527
2.1834836 -1.2824183 -1.3205947
2.7070141 -1.1190944 -1.3471888
1.9232596 -1.1337148 -1.3178681
1.8129411 -0.7413283 -1.2922387
1.4964517 -0.88773137 -1.2890598
1.4606407 -0.59117174 -1.2906592
1.2013263 -0.71901935 -1.2779604
1.2009215 -0.48021412 -1.3078004
0.98644608 -0.59532297 -1.291205
0.97355855 -0.38460484 -1.2905736
0.82804734 -0.50283384 -1.2713519
nan nan nan
nan nan nan
nan nan nan
nan nan nan
nan nan nan
17.319641 -10.118272 1.9139584
20.65876 -8.6867561 1.5568272
17.437796 -10.187325 0.94016993
20.796774 -8.7533102 0.52305526
17.092344 -9.98946 0
20.690067 -8.7169123 -0.52044713
20.512589 -11.993693 -1.1064761
18.736256 -7.8940077 -1.4050289
nan nan nan
11.467221 -4.8324199 -1.4423515
8.4795809 -4.964469 -1.3777841
7.6909947 -3.2403703 -1.4564553
4.2709708 -2.5072045 -1.4073111
5.995213 -2.5240407 -1.4818236
3.445514 -2.0261543 -1.362748
3.2327719 -1.3530593 -1.396186
2.1808944 -1.29116 -1.3217633
2.6968143 -1.1259226 -1.3440241
1.9229745 -1.1426157 -1.3204395
1.808423 -0.74686265 -1.2908448
1.4933438 -0.89294946 -1.2890598
1.4621187 -0.59771073 -1.2938697
1.2034919 -0.72604555 -1.2830858
1.197629 -0.48375773 -1.305999
0.98854864 -0.60132319 -1.2968765
0.96934128 -0.38686615 -1.2866389
0.82502699 -0.5049448 -1.2693371
nan nan nan
nan nan nan
nan nan nan
nan nan nan
nan nan nan
17.348906 -10.22085 1.9213326
20.537256 -8.7243958 1.5500597
17.4821 -10.299347 0.9445954
20.733112 -8.8203831 0.52230084
17.021158 -10.031726 0
20.664877 -8.7956228 -0.52062124
20.524416 -12.101783 -1.1095041
18.77375 -7.9909449 -1.4100358
12.224988 -7.2158074 -1.296212
11.419726 -4.8617773 -1.4385992
8.4540634 -4.9932132 -1.3767391
7.6767998 -3.2675734 -1.4560237
4.2530427 -2.5186827 -1.4045599
5.9836788 -2.5450442 -1.4812654
3.4417734 -2.0417836 -1.3643742
3.2171068 -1.3603902 -1.3915195
2.168335 -1.2949846 -1.3170886
2.6989367 -1.1384366 -1.3471888
1.9167354 -1.1488868 -1.3191538
1.8095063 -0.75507885 -1.2936327
1.4916101 -0.89970928 -1.2905674
1.4510549 -0.59942329 -1.2858434
1.1975806 -0.72875792 -1.2796689
1.2005818 -0.49030757 -1.3114032
0.97927123 -0.60082018 -1.2874241
0.97644228 -0.39402249 -1.2984428
0.82442796 -0.50874633 -1.2713519
nan nan nan
nan nan nan
nan nan nan
nan nan nan
nan nan nan
17.390148 -10.327101 1.9298961
20.369148 -8.7370577 1.5396485
17.413836 -10.341177 0.9428485
20.598099 -8.8437414 0.51963162
16.979589 -10.08725 0
20.464119 -8.7946949 -0.5163272
nan nan nan
18.793865 -8.0771036 -1.4136615
12.096154 -7.1939349 -1.2850456
11.402687 -4.9016099 -1.4385992
8.4459658 -5.0262856 -1.3781325
7.6676102 -3.2953224 -1.4564553
4.2487936 -2.5352373 -1.4059354
6.0016327 -2.5774448 -1.487963
3.4228127 -2.0459015 -1.3594956
3.2144723 -1.3725208 -1.3924528
2.1697066 -1.3055917 -1.3205947
2.6949465 -1.1478508 -1.3471888
1.9092466 -1.1530159 -1.3165823
1.8049458 -0.76058739 -1.2922387
1.490321 -0.90568888 -1.292075
1.4524939 -0.60595405 -1.2890538
1.1936033 -0.73176831 -1.2779604
1.1909285 -0.49100143 -1.3023963
0.98005217 -0.60579121 -1.291205
0.97369987 -0.39668065 -1.2964755
