ply
format ascii 1.0
comment PCL generated
element vertex 1649
property float x
property float y
property float z
element camera 0
property float view_px
property float view_py
property float view_pz
property float x_axisx
property float x_axisy
property float x_axisz
property float y_axisx
property float y_axisy
property float y_axisz
property float z_axisx
property float z_axisy
property float z_axisz
property float focal
property float scalex
property float scaley
property float centerx
property float centery
property int viewportx
property int viewporty
property float k1
property float k2
end_header
21.970222 -9.1880007 1.1089184
25.751011 -7.0085382 0.61879975
nan nan nan
20.448231 -5.5734849 -0.4912594
17.313932 -7.2473345 -0.87367475
19.805801 -5.3984652 -1.4186684
14.158472 -5.9318862 -1.4019508
12.602199 -3.4358947 -1.5142238
9.4611721 -3.966985 -1.4387481
8.0187292 -2.1856658 -1.4504138
4.6913052 -1.9734949 -1.4465177
6.5021167 -1.7703396 -1.5354036
3.8618081 -1.6280668 -1.4294219
3.3990011 -0.91783971 -1.4027189
2.322335 -0.98704857 -1.3159199
2.8417373 -0.76464415 -1.3535187
2.0532587 -0.87656486 -1.3178681
1.9354638 -0.5127582 -1.3215127
1.6093082 -0.6923455 -1.2981057
1.5413125 -0.4024514 -1.3051069
1.3006504 -0.56561494 -1.2950454
1.2527686 -0.32154113 -1.3078004
1.0549052 -0.46331468 -1.291205
1.0164824 -0.25638413 -1.2925408
0.88861674 -0.39320284 -1.2753816
nan nan nan
nan nan nan
nan nan nan
27.222075 -11.496689 4.6219726
25.835962 -7.1092129 3.2669153
27.153454 -11.467715 2.814085
25.777193 -7.1027203 1.8578854
21.827595 -9.2179918 1.1033283
25.738436 -7.101706 0.61908984
nan nan nan
20.351559 -5.6235361 -0.4894025
17.346031 -7.3320422 -0.87658626
19.83732 -5.4815111 -1.422294
14.146851 -5.9851537 -1.4028623
12.566193 -3.4732525 -1.5113374
9.4449892 -3.9990211 -1.4383998
8.0086775 -2.2129881 -1.4499822
4.6932349 -1.9936213 -1.4492691
6.5052948 -1.7956156 -1.537636
3.8474026 -1.6378285 -1.4261694
3.3957765 -0.92969888 -1.4027189
2.3209054 -0.99602258 -1.3170886
2.8303022 -0.77218038 -1.3492988
2.0482183 -0.88287592 -1.3165823
1.9316572 -0.51897538 -1.3201187
1.6032259 -0.69636458 -1.2950904
1.5380448 -0.40734181 -1.3035015
1.3020077 -0.57162523 -1.2984624
1.2533174 -0.326345 -1.3096018
1.0562692 -0.46832752 -1.2949861
1.0155811 -0.25993076 -1.2925408
0.88588923 -0.39569464 -1.2733667
nan nan nan
nan nan nan
nan nan nan
27.281977 -11.640009 4.6393776
25.924465 -7.2358718 3.2814565
27.175329 -11.594511 2.8207455
25.87829 -7.2327189 1.867082
21.710972 -9.2626448 1.0991359
25.845758 -7.2382154 0.62233943
nan nan nan
20.246578 -5.6744924 -0.48737156
17.360376 -7.4132318 -0.87868249
19.850718 -5.5636001 -1.4247111
14.11232 -6.034533 -1.4017229
12.567724 -3.5233054 -1.5130692
9.431839 -4.0362315 -1.4387481
8.0028839 -2.2429905 -1.4504138
4.6833377 -2.0106781 -1.4485812
6.5150981 -1.8240396 -1.541543
3.8475988 -1.6553959 -1.4286088
3.3945811 -0.94275773 -1.4036522
2.3130105 -1.0031643 -1.3147513
2.8252685 -0.78194618 -1.3482438
2.046778 -0.89159232 -1.3178681
1.9357511 -0.52768093 -1.3243008
1.6041899 -0.70412356 -1.2981057
1.5439484 -0.41495264 -1.3099227
1.2931354 -0.57364756 -1.2916285
1.2537317 -0.33159426 -1.3114032
1.0514805 -0.47103503 -1.291205
1.0145756 -0.26382837 -1.2925408
0.88443303 -0.39893889 -1.2733667
nan nan nan
27.244316 -11.747778 6.8579659
nan nan nan
27.191278 -11.713668 4.6308684
25.89905 -7.3263211 3.2814565
27.184973 -11.710966 2.8259788
25.869684 -7.3277636 1.8682966
21.602825 -9.3057642 1.0952927
25.857679 -7.3341088 0.62320977
nan nan nan
20.125668 -5.7164621 -0.48493442
17.325224 -7.4698243 -0.87821662
19.895956 -5.6512504 -1.4293727
14.083088 -6.0773511 -1.4008113
12.562515 -3.5691884 -1.5139351
9.4115858 -4.0645409 -1.437703
7.9902673 -2.2695675 -1.4495506
4.674439 -2.0252411 -1.4478934
6.5133801 -1.8480991 -1.5426593
3.831248 -1.6634325 -1.4245434
3.3935025 -0.95522815 -1.4045854
2.3116946 -1.011717 -1.3159199
2.8137906 -0.78936231 -1.3440241
2.0438101 -0.8983748 -1.3178681
1.9258931 -0.53223455 -1.3187248
1.5945572 -0.70619869 -1.292075
1.5369406 -0.41883788 -1.3051069
1.2995484 -0.58167624 -1.3001709
1.2492744 -0.33486024 -1.3078004
1.0499128 -0.47451928 -1.291205
1.0151881 -0.26758 -1.2945082
0.88168991 -0.40140647 -1.2713519
nan nan nan
nan nan nan
nan nan nan
27.310837 -11.872715 4.6579428
25.970039 -7.4394922 3.2935741
27.173155 -11.807223 2.8285954
25.921955 -7.4355083 1.8738493
21.477949 -9.3365231 1.090518
25.854837 -7.4260235 0.62373203
nan nan nan
20.01873 -5.7541242 -0.4827874
17.428589 -7.5830455 -0.88473839
19.866121 -5.7102838 -1.4285094
14.017209 -6.1041327 -1.3962537
12.584656 -3.6182375 -1.5179762
9.3912468 -4.0927601 -1.4366578
7.9736304 -2.2919402 -1.4478245
4.6588902 -2.0368757 -1.4451421
6.5169125 -1.8712393 -1.5448918
3.819216 -1.6732785 -1.422104
3.3837919 -0.96398288 -1.4017856
2.3103478 -1.020272 -1.3170886
2.8178391 -0.80004954 -1.3471888
2.042779 -0.90601879 -1.3191538
1.9302095 -0.53995132 -1.3229067
1.5905089 -0.71039456 -1.2905674
1.5337688 -0.42315784 -1.3035015
1.2943904 -0.58424813 -1.2967539
1.2498311 -0.33945155 -1.3096018
1.0513906 -0.47917935 -1.2949861
1.0128508 -0.27037466 -1.2925408
0.88176769 -0.40479589 -1.2733667
nan nan nan
nan nan nan
nan nan nan
nan nan nan
26.02256 -7.5529184 3.303571
27.079563 -11.884731 2.8233621
25.970087 -7.5475163 1.8792284
21.367479 -9.3773088 1.0865583
25.965549 -7.5560217 0.62703955
nan nan nan
19.89912 -5.7988 -0.48040831
17.443167 -7.6619186 -0.88683468
19.861818 -5.7879405 -1.4297179
14.00949 -6.1590385 -1.3976209
12.576077 -3.6657271 -1.5185535
9.3791695 -4.126514 -1.4370062
7.9651771 -2.3211496 -1.4478245
4.6495533 -2.0521545 -1.4444543
6.5076699 -1.8944322 -1.5443337
3.8133519 -1.6865999 -1.422104
3.3869219 -0.97830456 -1.4045854
2.296684 -1.0238217 -1.3112452
2.8127093 -0.80974698 -1.3461338
2.0317798 -0.90963101 -1.3140107
1.9222257 -0.5453313 -1.3187248
1.5860801 -0.7153911 -1.2890598
1.5322075 -0.42877659 -1.3035015
1.2889216 -0.58746827 -1.2933369
1.2419491 -0.34198719 -1.3023963
1.0511116 -0.48371711 -1.2968765
1.0133432 -0.27448392 -1.2945082
0.88295996 -0.40927789 -1.2773963
nan nan nan
nan nan nan
nan nan nan
nan nan nan
26.024607 -7.6521063 3.3072064
nan nan nan
25.962723 -7.6437569 1.8806165
21.252424 -9.4154158 1.0823659
25.94381 -7.648026 0.6271556
nan nan nan
19.785271 -5.8406401 -0.47814524
17.452841 -7.7389607 -0.88869798
19.800827 -5.8452373 -1.426783
13.953775 -6.1927505 -1.3942027
12.625131 -3.7278759 -1.5260582
9.3533974 -4.1542015 -1.4352645
7.9570255 -2.3489392 -1.4478245
4.6401663 -2.0673928 -1.4437665
6.5103683 -1.9198904 -1.5465661
3.8009672 -1.697006 -1.4196646
3.3790336 -0.98882174 -1.4027189
2.2951107 -1.0327413 -1.3124139
2.8076894 -0.81892759 -1.3450789
2.0285921 -0.91671765 -1.3140107
1.9223057 -0.55260837 -1.3201187
1.5890148 -0.72340977 -1.2935828
1.5343908 -0.43516147 -1.306712
1.2901765 -0.59349549 -1.2967539
1.2407477 -0.3463203 -1.3023963
1.0494168 -0.48738325 -1.2968765
1.0153564 -0.27882731 -1.2984428
0.88018727 -0.41172639 -1.2753816
nan nan nan
nan nan nan
nan nan nan
nan nan nan
26.110544 -7.7814498 3.3217475
nan nan nan
26.075537 -7.7809258 1.8908544
21.133432 -9.4555016 1.0780569
26.022015 -7.7797928 0.62976688
nan nan nan
19.663158 -5.88304 -0.47570807
17.506403 -7.8396354 -0.89289051
19.793608 -5.9220586 -1.4278188
13.932165 -6.2473021 -1.3944306
12.625658 -3.7783935 -1.5277901
9.3531857 -4.1971831 -1.437703
7.9601598 -2.3816128 -1.4499822
4.630003 -2.0842071 -1.4430785
6.5056229 -1.9444362 -1.5471243
3.7987318 -1.7135345 -1.4212909
3.3731627 -1.0005418 -1.4017856
2.2891173 -1.0406297 -1.3112452
2.8133652 -0.83177555 -1.3492988
2.0192091 -0.92182255 -1.3101536
1.9182742 -0.55907232 -1.3187248
1.5807935 -0.72699827 -1.2890598
1.5346284 -0.44130874 -1.3083174
1.2845807 -0.59690064 -1.2933369
1.2460848 -0.35295591 -1.3096018
1.0430998 -0.48931417 -1.291205
1.0098166 -0.28149498 -1.2925408
0.87733585 -0.41431364 -1.2733667
nan nan nan
nan nan nan
nan nan nan
nan nan nan
26.104605 -7.8789968 3.3244741
nan nan nan
26.060154 -7.875505 1.8917218
21.0343 -9.4994001 1.0746796
26.048702 -7.8819618 0.63104343
21.119251 -9.5422125 0
19.558781 -5.9262848 -0.4736771
17.54492 -7.9305267 -0.89626783
19.753717 -5.9853315 -1.4264375
13.822915 -6.2534356 -1.3855431
12.588624 -3.815244 -1.5249035
9.3234301 -4.2210259 -1.4352645
7.9517975 -2.4093845 -1.4499822
4.6121259 -2.0945752 -1.4396394
6.5104589 -1.9706589 -1.5499148
3.7908771 -1.7251416 -1.4204777
3.3718715 -1.0129762 -1.4027189
2.2856536 -1.0482149 -1.3112452
2.8039291 -0.83964604 -1.3461338
2.0200341 -0.9303115 -1.3127252
1.9222845 -0.56751961 -1.3229067
1.5819894 -0.73392004 -1.292075
1.5330786 -0.44666287 -1.3083174
1.2792921 -0.59960192 -1.2899199
1.2449075 -0.35708612 -1.3096018
1.0385174 -0.49136409 -1.2874241
1.0073918 -0.28442755 -1.2905736
0.87588423 -0.41737357 -1.2733667
nan nan nan
nan nan nan
26.12611 -7.9601908 5.2625928
nan nan nan
26.068838 -7.9626207 3.3232622
27.445427 -12.505222 2.8795011
26.033895 -7.9618802 1.8917218
20.882244 -9.5142136 1.0685073
25.996132 -7.9602528 0.63040513
21.05337 -9.5966377 0
19.443439 -5.9618158 -0.471356
17.629858 -8.0394487 -0.90197426
19.75761 -6.0581136 -1.4281641
13.840601 -6.3168173 -1.3894171
12.528419 -3.8424146 -1.5191307
9.3161364 -4.2550073 -1.4363096
7.9484725 -2.4371827 -1.4508452
4.6051545 -2.1098578 -1.4396394
6.5015583 -1.9915248 -1.5493568
3.7894318 -1.7396783 -1.422104
3.3640547 -1.0228059 -1.4008523
2.2801602 -1.0548589 -1.3100766
2.8098078 -0.85156149 -1.3503537
2.0111074 -0.93428868 -1.3088679
1.9144243 -0.57211655 -1.3187248
1.575937 -0.73746645 -1.2890598
1.5279107 -0.45066661 -1.3051069
1.2822423 -0.60619026 -1.2950454
1.2470481 -0.36217156 -1.3132045
1.0427808 -0.49763766 -1.2949861
1.0094121 -0.28860563 -1.2945082
0.87582749 -0.42092094 -1.2753816
nan nan nan
nan nan nan
26.023104 -8.0281897 5.247438
nan nan nan
26.019548 -8.0469723 3.3205359
27.512398 -12.651905 2.8911572
25.989267 -8.0475435 1.8905072
20.814873 -9.571394 1.0667604
25.972961 -8.0524263 0.63052118
21.031099 -9.6752939 0
19.353285 -6.0081677 -0.46967322
nan nan nan
19.705376 -6.1174335 -1.4259197
13.795856 -6.3546724 -1.3871382
12.505444 -3.8831797 -1.5179762
9.296731 -4.2854271 -1.4356128
7.9375663 -2.464184 -1.4504138
4.5999427 -2.1269298 -1.4403272
6.5062056 -2.0178123 -1.5521474
3.7683249 -1.7459304 -1.4164124
3.3671155 -1.0365849 -1.4036522
2.278466 -1.0637485 -1.3112452
2.7981486 -0.85871214 -1.3461338
2.0058937 -0.94039088 -1.3075823
1.9183769 -0.58059102 -1.3229067
1.5769572 -0.74467117 -1.292075
1.5263283 -0.45599732 -1.3051069
1.2768269 -0.60908467 -1.2916285
1.2407839 -0.36506623 -1.3078004
1.0351487 -0.49842161 -1.2874241
1.0098813 -0.29255202 -1.2964755
0.87036347 -0.4220264 -1.2693371
nan nan nan
nan nan nan
26.059107 -8.1440125 5.2606983
nan nan nan
26.00646 -8.1474771 3.3226564
27.576441 -12.80402 2.9028132
26.002432 -8.1561785 1.8936306
20.673199 -9.5981836 1.0612868
25.989542 -8.167078 0.63168174
21.070316 -9.7870741 0
19.24053 -6.050581 -0.46746817
nan nan nan
19.718512 -6.2008357 -1.4285094
13.773611 -6.4086485 -1.3873661
12.465068 -3.9207969 -1.514801
9.2891846 -4.3252745 -1.4370062
7.9472747 -2.4991641 -1.453866
4.591742 -2.1445765 -1.4403272
6.5127172 -2.0460224 -1.5554961
3.7680149 -1.7633965 -1.4188515
3.3544352 -1.0461632 -1.399919
2.2743647 -1.0724893 -1.3112452
2.7993128 -0.87030417 -1.3482438
1.9983944 -0.94624662 -1.3050108
1.9082965 -0.58519542 -1.3173307
1.5704889 -0.74899876 -1.2890598
1.5191407 -0.45993242 -1.3002908
1.2679077 -0.61080205 -1.2847944
1.246022 -0.37179479 -1.3150059
1.0361661 -0.50383043 -1.291205
1.0131946 -0.29771861 -1.3023776
0.87544781 -0.42848656 -1.2794112
nan nan nan
nan nan nan
26.255211 -8.3059855 5.3061638
nan nan nan
26.275919 -8.3326988 3.360827
27.594675 -12.929772 2.9094737
26.035608 -8.2665119 1.8981422
20.589821 -9.6469746 1.0587248
25.948021 -8.2486753 0.63133359
21.146938 -9.9125671 0
19.145462 -6.094214 -0.46566936
20.862284 -9.7835455 -1.0729359
19.69437 -6.2688718 -1.4283367
13.745523 -6.4511142 -1.3866825
12.422909 -3.9552491 -1.5113374
9.2658262 -4.3518429 -1.4356128
7.9361553 -2.526144 -1.4534346
4.5780835 -2.1567159 -1.4382638
6.5055356 -2.0687435 -1.5554961
3.7514598 -1.7708304 -1.4147861
3.3529749 -1.0585628 -1.4008523
2.2767804 -1.0828788 -1.3147513
2.796258 -0.88007027 -1.3482438
2.0010467 -0.95564657 -1.3088679
1.9141732 -0.59430361 -1.3229067
1.5662006 -0.75333548 -1.2875521
1.5193592 -0.46579081 -1.3018962
1.2707956 -0.61740518 -1.2899199
1.241461 -0.37493017 -1.3114032
1.0315555 -0.50581616 -1.2874241
1.0062822 -0.29933581 -1.2945082
0.86997139 -0.42956215 -1.2733667
nan nan nan
nan nan nan
nan nan nan
nan nan nan
26.078003 -8.3652267 3.3390152
27.673176 -13.072746 2.9220812
25.870327 -8.3085842 1.888078
20.467405 -9.6725092 1.0540664
26.049015 -8.3759794 0.63446701
21.143332 -9.9965324 0
19.028671 -6.1229548 -0.46329021
20.831982 -9.8537416 -1.0730524
19.757675 -6.3574405 -1.4343796
13.730804 -6.4998565 -1.3873661
12.360776 -3.9782894 -1.5052758
9.2446337 -4.379365 -1.4345677
7.9281802 -2.5510635 -1.4534346
4.5687361 -2.1708529 -1.4375759
6.5082855 -2.0921512 -1.5577286
3.7412992 -1.7812262 -1.4131598
3.3452129 -1.0676839 -1.3989857
2.2711854 -1.0894653 -1.3135827
2.7956395 -0.88953596 -1.3492988
1.9997975 -0.96320957 -1.3101536
1.9142777 -0.60093313 -1.3243008
1.5656171 -0.75913054 -1.2890598
1.5142255 -0.4694334 -1.2986857
1.2672122 -0.62058866 -1.2882115
1.2402109 -0.37904498 -1.3114032
1.0358205 -0.5119679 -1.2949861
1.0112509 -0.30425531 -1.3023776
0.86464852 -0.43030298 -1.2673223
nan nan nan
nan nan nan
25.544157 -8.2727938 5.1735568
nan nan nan
25.432581 -8.2562723 3.2599478
nan nan nan
25.426083 -8.2639694 1.8577118
20.413233 -9.7342196 1.0530183
nan nan nan
21.117332 -10.074582 0
18.930056 -6.1678896 -0.46143335
20.914648 -9.9823446 -1.0791082
19.765068 -6.4398537 -1.4366241
13.708033 -6.5477467 -1.3873661
12.343752 -4.0227985 -1.5049872
9.233757 -4.4137444 -1.4352645
7.932826 -2.5846775 -1.4560237
4.5676312 -2.1899078 -1.4396394
6.4982562 -2.1152377 -1.5571705
3.7307975 -1.7922251 -1.4115337
3.3412774 -1.0799376 -1.3989857
2.2673686 -1.0973866 -1.3135827
2.779413 -0.89561701 -1.3429691
1.9887134 -0.96642739 -1.3050108
1.9021693 -0.60481459 -1.3173307
1.5646163 -0.76573718 -1.2905674
1.5143242 -0.47555104 -1.3002908
1.269833 -0.62766439 -1.2933369
1.2388803 -0.3833718 -1.3114032
1.0310129 -0.51429343 -1.291205
1.0042214 -0.30617833 -1.2945082
0.8670274 -0.43547389 -1.2733667
nan nan nan
nan nan nan
26.358063 -8.6431704 5.3449988
nan nan nan
nan nan nan
nan nan nan
25.317444 -8.3313847 1.8519856
20.249165 -9.74722 1.0463802
25.270046 -8.330452 0.61694288
21.141079 -10.181207 0
18.828991 -6.211401 -0.45951843
nan nan nan
19.845552 -6.5466189 -1.4442207
13.687275 -6.6024971 -1.3878219
12.324208 -4.0664577 -1.5044099
9.2167425 -4.4491663 -1.4352645
7.9279771 -2.6152768 -1.4568868
4.5527005 -2.2042849 -1.4375759
6.4997187 -2.1420884 -1.5594029
3.7260151 -1.8075702 -1.4123468
3.3395014 -1.0928966 -1.399919
2.2710769 -1.1099737 -1.3182573
2.7761116 -0.90579802 -1.3429691
1.9926831 -0.97784281 -1.3101536
1.9019161 -0.61241573 -1.3187248
1.5652379 -0.77351141 -1.2935828
1.5052613 -0.47878775 -1.2938697
1.2657819 -0.6317175 -1.2916285
1.2324333 -0.38658112 -1.305999
1.0275712 -0.5175091 -1.2893145
1.0045134 -0.31048295 -1.2964755
0.86542541 -0.43864873 -1.2733667
nan nan nan
nan nan nan
nan nan nan
nan nan nan
nan nan nan
nan nan nan
26.327026 -8.76548 1.9281611
20.134151 -9.7785616 1.0421877
25.277847 -8.4260569 0.61781329
21.357243 -10.377334 0
18.719475 -6.2478232 -0.45737144
nan nan nan
19.789457 -6.6048026 -1.4418035
13.616056 -6.6238828 -1.3828084
12.269892 -4.0960927 -1.4995029
9.1997118 -4.478622 -1.434916
7.9234724 -2.6444929 -1.45775
4.5410466 -2.2172589 -1.4362001
6.4852657 -2.1624534 -1.5577286
3.7115088 -1.815756 -1.4090945
3.3268571 -1.101637 -1.396186
2.2614391 -1.114562 -1.3147513
2.7707803 -0.91477436 -1.3419141
1.9836676 -0.98158652 -1.3062965
1.8977928 -0.61841071 -1.3173307
1.5573134 -0.77602172 -1.2890598
1.5035808 -0.48403916 -1.2938697
1.265309 -0.63673496 -1.2933369
1.2311445 -0.39066595 -1.305999
1.0243928 -0.52016962 -1.2874241
1.000531 -0.31290057 -1.2925408
0.86388904 -0.44166699 -1.2733667
nan nan nan
nan nan nan
26.452223 -8.8738966 5.376256
nan nan nan
26.443224 -8.8914013 3.4014211
nan nan nan
26.413635 -8.8917131 1.9366637
20.054518 -9.8222017 1.039742
26.360596 -8.8841019 0.64502794
21.46863 -10.519615 0
18.623966 -6.2810512 -0.45551458
20.086966 -9.8467932 -1.0416085
19.749704 -6.6605668 -1.4404223
13.589545 -6.6668048 -1.3823527
12.254611 -4.1338258 -1.4992143
9.1714773 -4.5025554 -1.4328258
7.901123 -2.6646547 -1.4551606
4.5422931 -2.2365563 -1.4389516
6.4807491 -2.183594 -1.5582868
3.705467 -1.8280537 -1.4090945
3.31898 -1.1106144 -1.3943194
2.2597086 -1.1230406 -1.3159199
2.7635915 -0.92204362 -1.3398042
1.9727319 -0.98432177 -1.3011537
1.8938684 -0.62372321 -1.3159367
1.5548654 -0.78091592 -1.2890598
1.5056999 -0.48993987 -1.2970804
1.2584238 -0.6382212 -1.2882115
1.2298424 -0.39474636 -1.305999
1.0300257 -0.52712899 -1.2968765
0.99954307 -0.31604227 -1.2925408
0.86249727 -0.44437879 -1.2733667
nan nan nan
nan nan nan
nan nan nan
nan nan nan
26.473112 -9.0044231 3.4092977
nan nan nan
26.427296 -8.9991302 1.9399606
20.008919 -9.8866138 1.0391597
26.381472 -8.9938011 0.64630455
21.3018 -10.530222 0
18.513298 -6.319406 -0.45336753
19.978605 -9.880311 -1.0377654
19.765285 -6.7465992 -1.4433573
13.517107 -6.689899 -1.3773392
12.213524 -4.1698923 -1.4960393
9.16014 -4.5367413 -1.4335226
7.907619 -2.6991594 -1.4581815
4.5258493 -2.2481174 -1.4362001
6.4796224 -2.2096896 -1.5599611
3.6884835 -1.8357046 -1.4050289
3.303901 -1.1190594 -1.389653
2.2557747 -1.1309216 -1.3159199
2.7644894 -0.93361318 -1.3419141
1.9692841 -0.99120194 -1.3011537
1.8935393 -0.6313141 -1.3173307
1.559105 -0.79022038 -1.2950904
1.4947872 -0.49247333 -1.2890538
1.2560761 -0.64282924 -1.2882115
1.2334068 -0.4006319 -1.3114032
1.0237317 -0.52863848 -1.291205
1.0027896 -0.32110146 -1.2984428
0.86217391 -0.44822368 -1.2753816
nan nan nan
nan nan nan
nan nan nan
nan nan nan
26.511919 -9.1209898 3.4183857
nan nan nan
26.478252 -9.1197414 1.9460338
19.898298 -9.9185114 1.0352001
26.425528 -9.1118994 0.64816141
19.974081 -9.9606495 0
18.403709 -6.3538232 -0.45122051
19.88813 -9.9221115 -1.0348539
19.706249 -6.8033476 -1.4407675
13.444673 -6.7125688 -1.3723257
12.180115 -4.2060194 -1.4937301
9.1176767 -4.5554051 -1.4293422
7.8934932 -2.7251399 -1.4573184
4.5158262 -2.2628238 -1.4355123
6.4695663 -2.2315006 -1.5594029
3.6757166 -1.8453832 -1.4025897
3.3021691 -1.1313354 -1.3905863
2.2518134 -1.1387887 -1.3159199
2.7504861 -0.93960333 -1.3366393
1.9658121 -0.99806994 -1.3011537
1.8873894 -0.63659883 -1.3145427
1.5581114 -0.7965681 -1.2965981
1.4966978 -0.49889362 -1.2922645
1.248964 -0.64468926 -1.2830858
1.2303528 -0.40439746 -1.3096018
1.0189822 -0.53069049 -1.2874241
0.99872494 -0.32365778 -1.2945082
0.85929525 -0.45053923 -1.2733667
nan nan nan
nan nan nan
nan nan nan
nan nan nan
26.536903 -9.238492 3.4259591
nan nan nan
26.527082 -9.24545 1.9521071
19.765886 -9.9431095 1.0301925
26.475296 -9.2429485 0.65025038
19.810158 -9.9697189 0
18.30479 -6.394865 -0.44936365
19.786947 -9.962369 -1.0314766
19.594065 -6.8451056 -1.4343796
13.356558 -6.7327571 -1.3659449
12.124762 -4.2367153 -1.4888232
9.0868568 -4.5836878 -1.4272519
7.8788028 -2.7524297 -1.4564553
4.5006714 -2.2768891 -1.4334489
6.4728494 -2.2592089 -1.5621936
3.6601717 -1.8552035 -1.3993373
3.289233 -1.1403984 -1.3868531
2.2493918 -1.1484334 -1.3170886
2.7491667 -0.95041662 -1.3376942
1.9657791 -1.0075709 -1.303725
1.8909383 -0.64551544 -1.3187248
1.5550413 -0.80254489 -1.2965981
1.493042 -0.50376654 -1.2906592
1.2448622 -0.64863372 -1.2813774
1.2238526 -0.40748745 -1.3041977
1.0154908 -0.53383446 -1.2855335
0.99747479 -0.32749024 -1.2945082
0.85763812 -0.45368573 -1.2733667
nan nan nan
nan nan nan
nan nan nan
nan nan nan
26.591106 -9.3615513 3.4371681
nan nan nan
26.539337 -9.3537388 1.9554039
19.612543 -9.9475889 1.0239036
26.479855 -9.3431644 0.65112078
19.6789 -9.9855719 0
18.189215 -6.4222593 -0.44704258
19.653599 -9.9770517 -1.0262359
nan nan nan
13.278675 -6.7488036 -1.3602477
12.075521 -4.264502 -1.4844935
9.0481405 -4.5998673 -1.4234201
7.8858867 -2.7842755 -1.4594761
4.4870739 -2.2877393 -1.4313854
6.4561281 -2.2774217 -1.5599611
3.6564302 -1.8677697 -1.4001504
3.2898121 -1.1528304 -1.3887198
2.2438083 -1.1544814 -1.3159199
2.7459998 -0.95952803 -1.3376942
1.9530849 -1.0088114 -1.2972965
1.8849754 -0.650105 -1.3159367
1.5472085 -0.80465823 -1.292075
1.4987125 -0.51091492 -1.2970804
1.2444327 -0.65339291 -1.2830858
1.2291439 -0.41352591 -1.3114032
1.0139024 -0.53684509 -1.2855335
0.99644107 -0.33062226 -1.2945082
0.85360068 -0.45497769 -1.2693371
nan nan nan
nan nan nan
26.671391 -9.4579029 5.4529786
nan nan nan
26.641062 -9.4733028 3.447468
nan nan nan
26.573259 -9.4596434 1.9600891
19.461124 -9.9477644 1.0176148
26.530418 -9.4548264 0.6530937
19.66301 -10.055315 0
18.105383 -6.4567103 -0.44547582
19.54213 -9.9977922 -1.0220433
nan nan nan
13.15992 -6.7405338 -1.3502208
12.031655 -4.2915769 -1.4807411
9.0182247 -4.6203647 -1.4209815
7.8631825 -2.8040769 -1.4568868
4.4798646 -2.3018243 -1.4313854
6.4558291 -2.3001442 -1.5616355
3.6379366 -1.8727484 -1.3952719
3.2774265 -1.1600709 -1.3849865
2.2362487 -1.1594869 -1.3135827
2.7322824 -0.96438777 -1.3324194
1.9499059 -1.0149423 -1.2972965
1.8848844 -0.65670365 -1.3173307
1.5517331 -0.81322783 -1.2981057
1.4898473 -0.51313758 -1.2906592
1.2439855 -0.65815574 -1.2847944
1.2261961 -0.41683125 -1.3096018
1.0165352 -0.54234833 -1.291205
0.99832553 -0.33472282 -1.2984428
0.84826177 -0.45554462 -1.2632927
nan nan nan
nan nan nan
26.701244 -9.5787916 5.466239
nan nan nan
26.628849 -9.5737953 3.4501946
19.282333 -9.9456558 2.0704815
26.589361 -9.5700779 1.963733
19.346857 -9.9789515 1.0135388
26.556038 -9.568552 0.65454435
19.732658 -10.182354 0
18.011063 -6.4975915 -0.44373503
19.445444 -10.038409 -1.0188991
nan nan nan
13.047842 -6.7407093 -1.3411055
11.983141 -4.323853 -1.4767002
8.9726439 -4.6386013 -1.4164528
7.8528523 -2.8328784 -1.4568868
4.4585981 -2.3115852 -1.4272584
6.4450631 -2.3229651 -1.5610774
3.6289508 -1.8849787 -1.3944588
3.2709684 -1.1712952 -1.3840533
2.2339411 -1.1687015 -1.3147513
2.7372699 -0.97743684 -1.3366393
1.946173 -1.0220822 -1.2972965
1.8764749 -0.6618734 -1.3131487
1.5452189 -0.8170405 -1.2950904
1.4914875 -0.52010983 -1.2938697
1.2479987 -0.66616052 -1.2916285
1.2164574 -0.4185223 -1.3005948
1.0115683 -0.54468942 -1.2874241
0.99416751 -0.3373971 -1.2945082
0.84780544 -0.45950747 -1.2653074
nan nan nan
nan nan nan
26.729954 -9.6945305 5.4790258
nan nan nan
26.693228 -9.7022858 3.462918
19.214386 -9.9956722 2.0669134
26.654226 -9.6986408 1.9710208
19.345137 -10.063715 1.0152857
26.588234 -9.6851387 0.65616912
19.812305 -10.311198 0
17.920176 -6.5355964 -0.44205222
19.361555 -10.080848 -1.0163369
nan nan nan
12.991117 -6.7689524 -1.3376871
11.944643 -4.3571496 -1.4738137
8.9542017 -4.6687484 -1.4161043
7.8498573 -2.862802 -1.4581815
4.4505019 -2.3271344 -1.4272584
6.4277549 -2.3421144 -1.5588449
3.6118813 -1.8921435 -1.3903934
3.2603159 -1.1803421 -1.3812535
2.2298479 -1.1764923 -1.3147513
2.731709 -0.98621798 -1.3355843
1.948274 -1.0318861 -1.3011537
1.8761085 -0.66911393 -1.3145427
1.545874 -0.82431096 -1.2981057
1.4896629 -0.5253129 -1.2938697
1.2504822 -0.67311698 -1.2967539
1.2182662 -0.42389756 -1.3041977
1.0110965 -0.54900116 -1.2893145
0.9929837 -0.34086534 -1.2945082
0.84749293 -0.46317774 -1.2673223
nan nan nan
nan nan nan
nan nan nan
nan nan nan
26.72908 -9.8210735 3.4720063
19.082415 -10.011798 2.0564468
26.645958 -9.8010912 1.9729295
19.287775 -10.119576 1.0141212
26.626972 -9.804656 0.65796798
nan nan nan
17.838625 -6.5765042 -0.44060156
19.341726 -10.156499 -1.0171522
17.873442 -6.5893412 -1.3162867
12.916726 -6.7876153 -1.3324457
11.90373 -4.3893728 -1.4706386
8.9334679 -4.6976705 -1.4154075
7.8375063 -2.8893347 -1.45775
4.4295988 -2.3359232 -1.4231312
6.4149661 -2.3628547 -1.5577286
3.6094334 -1.9069507 -1.3920194
3.2583544 -1.1925111 -1.3821868
2.2257276 -1.1842688 -1.3147513
2.7176006 -0.99187136 -1.3303095
1.9446603 -1.0386804 -1.3011537
1.8815744 -0.67846376 -1.3201187
1.5394775 -0.82780814 -1.2950904
1.4842075 -0.52922893 -1.2906592
1.2417154 -0.67398322 -1.2899199
1.213506 -0.42700449 -1.3005948
1.007741 -0.55173814 -1.2874241
0.9932465 -0.34483081 -1.2964755
0.84845912 -0.46756968 -1.2713519
nan nan nan
nan nan nan
nan nan nan
nan nan nan
26.76269 -9.9448996 3.4810944
18.970812 -10.042077 2.0483589
26.684656 -9.926506 1.9784822
19.184347 -10.155145 1.0106274
26.643 -9.9268894 0.65930259
nan nan nan
17.751165 -6.6182742 -0.43903479
19.368361 -10.261239 -1.0205295
17.81645 -6.642612 -1.3138696
12.839986 -6.8103237 -1.3272043
11.871274 -4.4269013 -1.468618
8.9000597 -4.7238102 -1.412969
7.8384008 -2.9223387 -1.4599075
4.4142337 -2.3495235 -1.4210678
6.4016953 -2.3846509 -1.5566124
3.5895722 -1.9141148 -1.3871409
3.2561376 -1.2052491 -1.3831201
2.2231097 -1.1938535 -1.3159199
2.7182009 -1.0033914 -1.3324194
1.9349992 -1.0430816 -1.2972965
1.8712724 -0.68252182 -1.3145427
1.5362874 -0.83371323 -1.2950904
1.4786497 -0.53337127 -1.2874485
1.2455145 -0.68226534 -1.2967539
1.2151262 -0.43281642 -1.3041977
1.0056151 -0.5556035 -1.2874241
0.99337208 -0.34914917 -1.2984428
0.84286535 -0.46850744 -1.2653074
nan nan nan
nan nan nan
nan nan nan
nan nan nan
26.813774 -10.070535 3.4923034
18.861004 -10.068383 2.040271
26.736223 -10.052059 1.9849025
19.076084 -10.183232 1.0067842
26.673092 -10.038952 0.6608693
nan nan nan
17.674162 -6.6599345 -0.43770018
19.497614 -10.417054 -1.0292639
17.839832 -6.7223454 -1.3173225
12.775622 -6.8305564 -1.3228745
11.83251 -4.4595594 -1.4657316
8.8756161 -4.7486248 -1.4115757
7.8281527 -2.949682 -1.4599075
4.3894782 -2.3550506 -1.4155651
6.3910513 -2.4061248 -1.5560542
3.5790415 -1.9237669 -1.3855146
3.2388735 -1.2117411 -1.3775203
2.213311 -1.1980575 -1.3124139
2.7040606 -1.0089214 -1.3271446
1.9296467 -1.0484668 -1.2960107
1.8708268 -0.68976486 -1.3159367
1.5335144 -0.83880317 -1.2950904
1.4839858 -0.54114258 -1.2938697
1.2400529 -0.68462163 -1.2933369
1.2120517 -0.4362604 -1.3023963
0.99948525 -0.55653727 -1.2817526
0.98638809 -0.35039386 -1.2905736
0.84251368 -0.4721742 -1.2673223
nan nan nan
nan nan nan
nan nan nan
nan nan nan
26.8179 -10.179037 3.4974532
18.766581 -10.102303 2.0338485
nan nan nan
18.961266 -10.207136 1.0025917
26.689283 -10.151541 0.66214591
nan nan nan
17.590076 -6.6984706 -0.43619147
19.489712 -10.500452 -1.0307778
19.203127 -7.3125062 -1.4200495
12.740744 -6.8692012 -1.3217351
11.793663 -4.4920011 -1.4628453
8.848093 -4.7736974 -1.4098337
7.8270144 -2.9804921 -1.4616338
4.3770041 -2.3680692 -1.4141895
6.378057 -2.4266875 -1.554938
3.5598383 -1.9294823 -1.3806361
3.2346241 -1.2230396 -1.3775203
2.2071767 -1.2047155 -1.3112452
2.7090082 -1.0215454 -1.3313644
1.9259751 -1.0551962 -1.2960107
1.8645166 -0.69484705 -1.3131487
1.5253423 -0.84125406 -1.2905674
1.4730908 -0.54302156 -1.2858434
1.2360625 -0.6880554 -1.2916285
1.2137823 -0.44166639 -1.305999
1.00181 -0.56243563 -1.2874241
0.989519 -0.35538572 -1.2964755
0.84086031 -0.47511223 -1.2673223
nan nan nan
nan nan nan
nan nan nan
nan nan nan
26.8633 -10.303684 3.5080562
18.652468 -10.124999 2.025285
26.840019 -10.305499 1.9979166
18.837734 -10.225596 0.99793339
26.754004 -10.283191 0.66464108
nan nan nan
17.526932 -6.7445765 -0.43520501
19.479271 -10.582728 -1.0321753
19.193777 -7.3857608 -1.4212581
12.692631 -6.9005485 -1.3192284
11.752417 -4.5233345 -1.4596702
8.8183308 -4.7974539 -1.4077436
7.8234577 -3.0104458 -1.4629284
4.3518357 -2.3741171 -1.4086868
6.3695474 -2.4489362 -1.554938
3.5530815 -1.9418968 -1.3806361
3.2216666 -1.2310181 -1.3737872
2.2087636 -1.2156149 -1.3147513
2.6969512 -1.0277746 -1.3271446
1.9166533 -1.0587963 -1.2921536
1.8659658 -0.7028088 -1.3159367
1.5258796 -0.84851688 -1.2935828
1.4729832 -0.54882616 -1.2874485
1.2368331 -0.69415838 -1.2950454
1.21549 -0.44708979 -1.3096018
0.99841893 -0.56511986 -1.2855335
0.98536938 -0.35779357 -1.2925408
0.83534533 -0.47583514 -1.2612778
nan nan nan
nan nan nan
nan nan nan
nan nan nan
26.889648 -10.4216 3.5162358
18.549343 -10.152998 2.0179107
22.851063 -8.8659277 1.7029315
18.663927 -10.215737 0.99059653
26.776192 -10.399133 0.66609174
nan nan nan
17.475327 -6.7948503 -0.43450865
19.512293 -10.68906 -1.035902
19.181826 -7.4581356 -1.422294
12.653186 -6.9364328 -1.3176333
11.727296 -4.5607314 -1.4585155
8.805871 -4.8305879 -1.4084404
7.8243799 -3.0421956 -1.4650862
4.3414164 -2.3881338 -1.4079989
6.3586888 -2.4702735 -1.5543798
3.5380015 -1.949719 -1.3773838
3.21735 -1.2422563 -1.3737872
2.2045069 -1.2233175 -1.3147513
2.6996946 -1.0396202 -1.3303095
1.9166896 -1.0675708 -1.2947249
1.8576796 -0.70711124 -1.3117547
1.5229083 -0.85383803 -1.2935828
1.4764432 -0.55598086 -1.2922645
1.2344025 -0.69847149 -1.2950454
1.2106694 -0.45012933 -1.305999
0.99785906 -0.56941581 -1.2874241
0.9884637 -0.36281225 -1.2984428
0.83880424 -0.4817118 -1.2693371
nan nan nan
nan nan nan
nan nan nan
nan nan nan
26.954781 -10.555204 3.5295649
18.457142 -10.186415 2.0117259
22.736383 -8.912879 1.6966847
18.516649 -10.219274 0.98465711
nan nan nan
nan nan nan
17.400322 -6.8357105 -0.43323204
nan nan nan
19.090675 -7.4995213 -1.4174598
12.591857 -6.9600778 -1.3137591
11.681256 -4.5898395 -1.4547632
8.77596 -4.854105 -1.4063501
7.8068357 -3.0667899 -1.4637915
4.3246489 -2.3986068 -1.4052477
6.3477588 -2.4915648 -1.5538218
3.5332398 -1.9632062 -1.3781967
3.2108328 -1.2526381 -1.372854
2.1982956 -1.2299244 -1.3135827
2.7002754 -1.0506777 -1.3324194
1.9148197 -1.0753067 -1.2960107
1.8532621 -0.71284896 -1.3103607
1.5233878 -0.86111629 -1.2965981
1.4709084 -0.5597744 -1.2890538
1.2335404 -0.70368338 -1.2967539
1.2058425 -0.45314077 -1.3023963
0.99161738 -0.57043797 -1.2817526
0.97995174 -0.36359969 -1.2886062
0.83839631 -0.48538226 -1.2713519
nan nan nan
nan nan nan
nan nan nan
nan nan nan
nan nan nan
18.35841 -10.215681 2.0048275
22.619335 -8.9582205 1.6902645
18.524508 -10.308136 0.98698634
23.006262 -9.120698 0.57377082
nan nan nan
17.353121 -6.8871899 -0.43265179
21.655916 -12.060959 -1.1543407
19.008743 -7.5440412 -1.4133162
12.565312 -7.0027776 -1.3135313
11.653622 -4.626008 -1.45332
8.7308559 -4.8690276 -1.4018214
7.8075275 -3.0985606 -1.4659492
4.3015685 -2.4054697 -1.4004327
6.3390231 -2.5137076 -1.5538218
3.5284276 -1.9766842 -1.3790098
3.2042828 -1.2629895 -1.3719207
2.192065 -1.2365026 -1.3124139
2.7008116 -1.0617516 -1.3345293
1.9110545 -1.081984 -1.2960107
1.8546333 -0.72081208 -1.3131487
1.5203726 -0.86642867 -1.2965981
1.4743155 -0.56695926 -1.2938697
1.2231745 -0.70342088 -1.2882115
1.2042534 -0.45734715 -1.3023963
0.99385953 -0.57636827 -1.2874241
0.98156863 -0.36809254 -1.2925408
0.83542085 -0.48755601 -1.2693371
nan nan nan
nan nan nan
nan nan nan
nan nan nan
nan nan nan
18.261869 -10.2456 1.9981669
22.509195 -9.0056314 1.6843648
18.457924 -10.355627 0.98535591
22.865232 -9.1572886 0.57104355
nan nan nan
17.338255 -6.9514418 -0.43288389
21.604975 -12.131587 -1.1538749
18.929049 -7.5890083 -1.4093451
12.503897 -7.0258574 -1.3096572
11.607438 -4.6546493 -1.4495676
8.6749706 -4.8776264 -1.3955507
7.7943783 -3.1248794 -1.4655176
4.2847729 -2.4157453 -1.3976815
6.3188972 -2.5312927 -1.5510311
3.5194483 -1.9878249 -1.3781967
3.1955435 -1.272454 -1.3700541
2.1915755 -1.2463355 -1.3147513
2.6886599 -1.0678338 -1.3303095
1.9035441 -1.0865185 -1.2934393
1.8463075 -0.72501391 -1.3089666
1.510428 -0.86774689 -1.2905674
1.4687523 -0.57072043 -1.2906592
1.2207117 -0.70768625 -1.2882115
1.2042695 -0.46216527 -1.3041977
0.99184155 -0.57983392 -1.2874241
0.97738951 -0.37043211 -1.2886062
0.83498722 -0.49122345 -1.2713519
nan nan nan
nan nan nan
nan nan nan
nan nan nan
nan nan nan
18.161016 -10.272519 1.9910306
22.362007 -9.0374346 1.6756887
18.354284 -10.381872 0.98174566
22.733496 -9.1967525 0.56854838
nan nan nan
17.334734 -7.0203619 -0.43340611
21.634209 -12.247536 -1.1577181
18.883947 -7.6475496 -1.407964
12.461968 -7.0596423 -1.3078341
11.579611 -4.6904788 -1.4481244
8.6557379 -4.9066563 -1.3952024
7.794837 -3.1566861 -1.4676753
4.2742252 -2.4294984 -1.3969936
6.3168006 -2.5560739 -1.5527055
3.5104346 -1.9989272 -1.3773838
3.1975396 -1.2861925 -1.372854
2.1795466 -1.2495739 -1.3100766
2.6954377 -1.0814229 -1.3355843
1.8960257 -1.0910138 -1.2908678
1.8514858 -0.73450476 -1.3145427
1.5073898 -0.87301397 -1.2905674
1.4667511 -0.57584387 -1.2906592
1.2198079 -0.71286684 -1.2899199
1.2058843 -0.467612 -1.3078004
0.98981154 -0.58329254 -1.2874241
0.97897494 -0.37493613 -1.2925408
0.8294552 -0.49185896 -1.2653074
nan nan nan
nan nan nan
nan nan nan
nan nan nan
nan nan nan
18.064518 -10.301325 1.98437
22.291069 -9.0994186 1.6727389
18.265871 -10.416183 0.97895068
22.627214 -9.2458057 0.56669152
nan nan nan
17.337883 -7.0921798 -0.43410248
21.595663 -12.325455 -1.157951
18.77634 -7.6803818 -1.4019213
12.443735 -7.1068044 -1.3085178
11.549377 -4.7252316 -1.4463927
8.6170673 -4.9245529 -1.3917189
7.7769327 -3.1810813 -1.4663808
4.25738 -2.4396195 -1.3942423
6.3033276 -2.5762658 -1.5515893
3.4952371 -2.0064561 -1.3741313
3.1844332 -1.2938604 -1.3691208
2.1770837 -1.2582819 -1.3112452
2.6916466 -1.0908251 -1.3355843
1.8884988 -1.0954697 -1.2882963
1.8450558 -0.73942447 -1.3117547
1.5060542 -0.87927836 -1.292075
1.4629494 -0.58025694 -1.2890538
1.2188829 -0.71804976 -1.2916285
1.2010136 -0.4705613 -1.3041977
0.98636496 -0.58590519 -1.2855335
0.97477955 -0.3772465 -1.2886062
0.83280563 -0.49780387 -1.2733667
nan nan nan
nan nan nan
nan nan nan
nan nan nan
27.122135 -11.170475 3.5765209
17.965885 -10.328343 1.9774716
22.252251 -9.1743221 1.6722182
18.17095 -10.446268 0.9758063
22.495457 -9.2837458 0.56419635
nan nan nan
17.356915 -7.170785 -0.43520501
21.54818 -12.398271 -1.1577181
18.6987 -7.7249322 -1.3981229
12.429638 -7.1564107 -1.3096572
11.528221 -4.7636223 -1.4458153
8.576232 -4.9410028 -1.3878868
7.7703333 -3.2100873 -1.4672439
4.2425957 -2.450856 -1.3921788
6.2942963 -2.5982528 -1.5515893
3.4923031 -2.0210149 -1.3757576
3.1820438 -1.3058472 -1.3700541
2.1745872 -1.2669882 -1.3124139
2.6794288 -1.0967871 -1.3313644
1.8902125 -1.1053082 -1.2921536
1.846313 -0.74741244 -1.3145427
1.5064102 -0.88655806 -1.2950904
1.4573544 -0.58394092 -1.2858434
1.2085313 -0.71762604 -1.2830858
1.2025903 -0.4760192 -1.3078004
0.9829123 -0.58850098 -1.2836431
0.97633362 -0.38176146 -1.2925408
0.8285321 -0.49917275 -1.2693371
nan nan nan
nan nan nan
nan nan nan
nan nan nan
nan nan nan
17.874088 -10.36291 1.9715246
22.142502 -9.2241793 1.6664922
18.076372 -10.480225 0.97277838
22.434267 -9.3594694 0.56355804
nan nan nan
17.351273 -7.2430139 -0.43572724
21.487471 -12.468396 -1.1569028
18.619625 -7.772284 -1.3943245
12.410678 -7.2090869 -1.3105688
11.515268 -4.8077555 -1.4463927
8.5443563 -4.9664292 -1.3857965
7.7562418 -3.2375975 -1.4668123
4.2310777 -2.4659171 -1.3914909
6.2779822 -2.6184933 -1.5499148
3.4743123 -2.0284441 -1.3716921
3.1729503 -1.3157277 -1.3681875
2.1678019 -1.2742069 -1.3112452
2.6837718 -1.1100581 -1.3355843
1.8896453 -1.1147407 -1.2947249
1.8416394 -0.75339144 -1.3131487
1.5047082 -0.8933562 -1.2965981
1.4605374 -0.59142673 -1.2906592
1.2120228 -0.72602433 -1.2899199
1.1975319 -0.47935247 -1.3041977
0.98344183 -0.59396905 -1.2874241
0.97342432 -0.38494465 -1.2905736
0.82922214 -0.5037505 -1.2733667
nan nan nan
nan nan nan
nan nan nan
nan nan nan
nan nan nan
17.771202 -10.386306 1.9641505
22.004416 -9.256938 1.6585101
17.974998 -10.505449 0.96928459
22.336308 -9.4056921 0.56187528
nan nan nan
17.376556 -7.3248897 -0.43700382
21.346823 -12.486571 -1.1516622
18.525734 -7.8091464 -1.3893179
12.375961 -7.2439127 -1.3094294
11.516722 -4.8556361 -1.4487017
8.4979372 -4.9772139 -1.3809195
7.7448936 -3.264652 -1.4668123
4.2208052 -2.4787164 -1.3908031
6.2643118 -2.6385016 -1.5487987
3.4675667 -2.0399542 -1.3716921
3.166198 -1.325901 -1.3672543
2.1597636 -1.2791327 -1.308908
2.6756961 -1.1176759 -1.3334743
1.8877802 -1.1220983 -1.2960107
1.8389984 -0.75981551 -1.3131487
1.4983176 -0.89628875 -1.2935828
1.4602394 -0.59724367 -1.2922645
1.2064868 -0.72814763 -1.2865028
1.1943271 -0.48267528 -1.3023963
0.98286211 -0.59808064 -1.2893145
0.97357678 -0.38873816 -1.2925408
0.82619882 -0.5058654 -1.2713519
nan nan nan
nan nan nan
nan nan nan
nan nan nan
nan nan nan
17.684872 -10.410515 1.9582036
21.877178 -9.288929 1.6512222
17.881969 -10.530778 0.96614021
22.199181 -9.4347506 0.55920601
nan nan nan
17.459263 -7.4244199 -0.4396731
21.010571 -12.383546 -1.1357074
18.457499 -7.8487687 -1.3860375
12.375458 -7.29883 -1.3119361
11.50141 -4.8917928 -1.4487017
8.4771223 -5.0028486 -1.3802227
7.7345996 -3.2889674 -1.4668123
4.210494 -2.4914744 -1.3901153
6.2470193 -2.6543596 -1.5465661
3.4668818 -2.0550618 -1.3741313
3.1641541 -1.3367424 -1.3681875
2.1536133 -1.2851535 -1.3077393
2.6721716 -1.1260763 -1.3334743
1.8785343 -1.1250415 -1.2921536
1.832769 -0.76399738 -1.3103607
1.5006117 -0.90409142 -1.2981057
1.4512641 -0.59891677 -1.2858434
1.2026356 -0.73098344 -1.2847944
1.1911134 -0.48598209 -1.3005948
0.97958565 -0.60030735 -1.2874241
0.96805298 -0.39007846 -1.2866389
0.82460546 -0.5084585 -1.2713519
nan nan nan
nan nan nan
27.278299 -11.660343 5.7167711
nan nan nan
27.241838 -11.66724 3.6134799
17.586681 -10.43969 1.9515431
21.681868 -9.2954826 1.6389023
17.716261 -10.516635 0.95915276
22.060453 -9.4668541 0.55653679
nan nan nan
17.445713 -7.4942794 -0.44002128
20.823378 -12.371338 -1.1279045
18.373606 -7.8927484 -1.3818939
12.369164 -7.3534365 -1.3139871
11.47656 -4.9309754 -1.4478358
8.4468431 -5.0248117 -1.3781325
7.715704 -3.3143802 -1.4655176
4.2038355 -2.5073888 -1.3908031
6.2327685 -2.6753173 -1.5454499
3.4515719 -2.0622959 -1.3708789
3.1592333 -1.3483306 -1.3681875
2.1491141 -1.2926631 -1.3077393
2.6638539 -1.1340909 -1.3313644
1.8819331 -1.1360321 -1.2972965
1.8337839 -0.77231538 -1.3131487
1.4955877 -0.9085421 -1.2965981
1.4508294 -0.60496616 -1.2874485
1.1983938 -0.73442972 -1.2830858
1.1894096 -0.49013689 -1.3005948
0.97321016 -0.60130399 -1.2817526
0.96947771 -0.39477864 -1.2905736
0.81897259 -0.50912189 -1.2653074
nan nan nan
nan nan nan
27.223906 -11.749655 5.7139292
nan nan nan
27.141724 -11.736657 3.6056032
17.498882 -10.47034 1.9458339
21.498226 -9.3057384 1.62745
17.600159 -10.53096 0.95484376
21.87591 -9.4782372 0.55270702
nan nan nan
17.501999 -7.5909219 -0.44211021
20.687943 -12.388771 -1.1228969
18.286451 -7.9310412 -1.3774049
12.302848 -7.3722472 -1.3096572
11.443329 -4.9640918 -1.4458153
8.4165144 -5.0466256 -1.3760424
7.7018294 -3.3403141 -1.4650862
4.1929979 -2.5208082 -1.3901153
6.2189198 -2.695121 -1.5443337
3.4463766 -2.0755522 -1.3716921
3.1545076 -1.3593501 -1.3681875
2.1445887 -1.3001571 -1.3077393
2.6702945 -1.1478487 -1.3366393
1.8797864 -1.1437107 -1.2985821
1.8253442 -0.77628314 -1.3089666
1.4924073 -0.91375721 -1.2965981
1.4451736 -0.60854584 -1.284238
1.2020268 -0.74245667 -1.2899199
1.1892935 -0.494948 -1.3023963
0.97387832 -0.60643363 -1.2855335
0.96952218 -0.39874268 -1.2925408
0.8196941 -0.5135566 -1.2693371
nan nan nan
nan nan nan
nan nan nan
nan nan nan
27.082396 -11.823386 3.6031797
17.387644 -10.486368 1.9375082
21.399336 -9.3517694 1.6224179
17.456375 -10.527836 0.9490208
21.673237 -9.4804373 0.54841298
nan nan nan
17.518898 -7.671011 -0.44321275
20.565472 -12.413155 -1.1185879
18.240377 -7.986824 -1.3760237
12.245076 -7.3958359 -1.306239
11.378159 -4.9830947 -1.4397537
8.3924913 -5.0721307 -1.3749971
7.6788416 -3.3622425 -1.4629284
4.1780086 -2.5316896 -1.3880517
6.2027755 -2.7138848 -1.5426593
3.43103 -2.0826588 -1.3684397
3.1476159 -1.3694296 -1.3672543
2.1381524 -1.306481 -1.3065705
2.6683512 -1.1580633 -1.3376942
1.8703032 -1.146897 -1.2947249
1.8321635 -0.78673106 -1.3159367
1.4909042 -0.92001075 -1.2981057
1.4501008 -0.61657345 -1.2906592
1.1994278 -0.74664795 -1.2899199
1.1907579 -0.50043207 -1.305999
0.96760505 -0.60721058 -1.2798622
0.96384525 -0.40036255 -1.2866389
0.81789649 -0.51641476 -1.2693371
nan nan nan
nan nan nan
nan nan nan
nan nan nan
nan nan nan
17.304443 -10.522867 1.9325128
21.378605 -9.4361792 1.623459
17.360064 -10.556706 0.94587648
21.549803 -9.5251989 0.54620796
nan nan nan
17.54324 -7.7584128 -0.44454741
20.466505 -12.455991 -1.1156764
18.486988 -8.1756468 -1.3969144
12.201708 -7.4337301 -1.3046438
11.353005 -5.0217519 -1.4388878
8.3814087 -5.1094742 -1.3763907
7.6687193 -3.3913598 -1.46336
4.1723566 -2.5502222 -1.3894273
6.1816406 -2.7316804 -1.5398686
3.423008 -2.0958176 -1.3684397
3.1362035 -1.3781625 -1.3644545
2.1274793 -1.3111974 -1.3030646
2.664089 -1.1678355 -1.3376942
1.8640633 -1.1529402 -1.2934393
1.8216475 -0.79014826 -1.3103607
1.4839777 -0.92361641 -1.2950904
1.4443065 -0.6203779 -1.2874485
1.1888328 -0.74638104 -1.2813774
1.1856334 -0.50365257 -1.3023963
0.96940684 -0.61355615 -1.2855335
0.96087664 -0.40346763 -1.2846714
0.81849051 -0.52100599 -1.2733667
nan nan nan
nan nan nan
nan nan nan
nan nan nan
nan nan nan
17.225172 -10.557194 1.9277554
21.261242 -9.4731989 1.6170387
17.265623 -10.582 0.94273204
21.47929 -9.5793076 0.54522157
nan nan nan
17.559414 -7.8389549 -0.44564989
20.365431 -12.49209 -1.112532
18.683813 -8.3407526 -1.4140068
12.138801 -7.4507036 -1.3005419
11.314997 -5.0522423 -1.43629
8.3475456 -5.1268716 -1.3736038
7.6545854 -3.4171047 -1.4629284
4.1618314 -2.562783 -1.3887395
6.1698418 -2.7522495 -1.5393105
3.4079933 -2.1021879 -1.3651873
3.1271324 -1.3872236 -1.3625878
2.1249962 -1.3194128 -1.3042333
2.6599963 -1.1771278 -1.3376942
1.8620483 -1.1602511 -1.2947249
1.8226826 -0.79816192 -1.3131487
1.4758424 -0.92534691 -1.2905674
1.4403726 -0.62465638 -1.2858434
1.1894325 -0.75227624 -1.2847944
1.1823618 -0.50690228 -1.3005948
0.96461254 -0.61500192 -1.2817526
0.96095574 -0.40724936 -1.2866389
0.81418014 -0.52225423 -1.2693371
nan nan nan
nan nan nan
nan nan nan
nan nan nan
nan nan nan
17.137133 -10.581563 1.9218085
21.134169 -9.5007143 1.6097509
17.18582 -10.611639 0.9402864
21.40638 -9.6320257 0.54417706
nan nan nan
17.613091 -7.9330568 -0.44768089
20.28141 -12.533296 -1.1102028
18.733372 -8.4374781 -1.4198769
12.078033 -7.4686508 -1.2966677
11.286859 -5.0846391 -1.4348469
8.3304977 -5.1545248 -1.3736038
7.6454577 -3.4434803 -1.46336
4.1533098 -2.57657 -1.3887395
6.1451235 -2.7656991 -1.5354036
3.3949821 -2.109731 -1.362748
3.122515 -1.397586 -1.3625878
2.1206093 -1.3264523 -1.3042333
2.6477964 -1.1822532 -1.3334743
1.8581904 -1.1664195 -1.2947249
1.8124284 -0.80085713 -1.3075727
1.4795039 -0.9345054 -1.2965981
1.4400504 -0.63019449 -1.2874485
1.1869314 -0.75621641 -1.2847944
1.1822672 -0.51150489 -1.3023963
0.96119344 -0.61730987 -1.2798622
0.96102005 -0.41103598 -1.2886062
0.81616598 -0.52737212 -1.2753816
nan nan nan
nan nan nan
nan nan nan
nan nan nan
nan nan nan
17.05361 -10.612386 1.9165751
20.937351 -9.5002489 1.5972574
17.167753 -10.683441 0.94133461
21.261116 -9.6560602 0.54133373
nan nan nan
17.626245 -8.0131025 -0.44872537
20.248133 -12.610616 -1.1107851
18.651583 -8.479085 -1.4159058
12.020199 -7.4910107 -1.2932495
11.239652 -5.1106496 -1.4310944
8.3145552 -5.1848826 -1.3739522
7.624423 -3.4660728 -1.4616338
4.146328 -2.5923274 -1.3894273
6.1354318 -2.7871327 -1.5354036
3.3916025 -2.1240804 -1.3643742
3.1239607 -1.411337 -1.3653878
2.1140976 -1.3326662 -1.3030646
2.6415865 -1.1905591 -1.3324194
1.8595395 -1.1763432 -1.2985821
1.8153111 -0.80970711 -1.3117547
1.4711903 -0.9364444 -1.292075
1.4413507 -0.63675994 -1.2906592
1.1858182 -0.7613439 -1.2865028
1.1820645 -0.51631874 -1.3041977
0.96040398 -0.62155348 -1.2817526
0.96241546 -0.41560245 -1.2925408
0.81184435 -0.52859533 -1.2713519
nan nan nan
nan nan nan
nan nan nan
nan nan nan
nan nan nan
17.035439 -10.683752 1.918716
20.779345 -9.5161762 1.5877138
17.24671 -10.816292 0.94773978
21.10004 -9.6719074 0.53808421
nan nan nan
17.670864 -8.1079254 -0.45058227
20.3034 -12.743627 -1.1162587
18.581066 -8.525423 -1.4127983
11.970788 -7.5183535 -1.2907428
11.233029 -5.1550288 -1.4325377
8.2901192 -5.2099214 -1.372907
7.6145167 -3.4936926 -1.4620655
4.1291223 -2.6016562 -1.3866761
6.1190181 -2.8054876 -1.5337292
3.3761735 -2.1308548 -1.3611219
3.1126819 -1.419351 -1.3625878
2.1075683 -1.3388507 -1.3018959
2.6477342 -1.204456 -1.3376942
1.8572288 -1.1839817 -1.2998679
1.8048997 -0.81264126 -1.3061787
1.4662355 -0.94049495 -1.2905674
1.4408711 -0.64256471 -1.2922645
1.1800923 -0.7634899 -1.2830858
1.1770794 -0.51905048 -1.3005948
0.95549238 -0.62310827 -1.2779716
0.95387942 -0.41589868 -1.2827042
0.8124643 -0.53305715 -1.2753816
nan nan nan
nan nan nan
nan nan nan
nan nan nan
nan nan nan
17.143185 -10.834909 1.9351295
20.732414 -9.5823746 1.5866725
17.265841 -10.912457 0.95088416
20.918699 -9.6773071 0.53431243
nan nan nan
17.744518 -8.2168045 -0.45319346
20.385414 -12.894529 -1.1232462
18.510456 -8.5713739 -1.4096906
11.904506 -7.53479 -1.2864128
11.199191 -5.1869059 -1.4305171
8.2739735 -5.2401524 -1.3732554
7.600039 -3.5192165 -1.4616338
4.1159582 -2.6134748 -1.3853004
6.0870681 -2.8166044 -1.5281479
3.3746974 -2.1464367 -1.3635612
3.1182466 -1.4350477 -1.3672543
2.1066024 -1.3485861 -1.3042333
2.6393921 -1.2118033 -1.3355843
1.8548872 -1.1916182 -1.3011537
1.8058329 -0.82064855 -1.3089666
1.4679636 -0.94886231 -1.2950904
1.4386194 -0.6475904 -1.2922645
1.1758932 -0.7666049 -1.2813774
1.1800166 -0.52525967 -1.305999
0.95604134 -0.62824309 -1.2817526
0.95383549 -0.41984287 -1.2846714
0.80690211 -0.53343022 -1.2693371
nan nan nan
nan nan nan
nan nan nan
nan nan nan
nan nan nan
17.220882 -10.972569 1.9484506
20.663252 -9.6424828 1.5840698
17.31418 -11.032037 0.95577544
20.82025 -9.7289963 0.53274572
17.014833 -10.845434 0
nan nan nan
20.409601 -13.014824 -1.1272058
18.467617 -8.6338787 -1.4088273
11.862897 -7.5724053 -1.2850456
11.157608 -5.2174034 -1.4276308
8.2537909 -5.271883 -1.3732554
7.5937824 -3.550175 -1.4629284
4.1099405 -2.6318541 -1.3866761
6.0789123 -2.8399265 -1.5287061
3.3544955 -2.1517134 -1.3586825
3.108758 -1.4445157 -1.3653878
2.1051197 -1.3590657 -1.3065705
2.6369903 -1.2224205 -1.3366393
1.8467017 -1.1963962 -1.2985821
1.8009257 -0.82639885 -1.3075727
1.4609712 -0.95230901 -1.292075
1.4414747 -0.6552285 -1.2970804
1.1775104 -0.77413082 -1.2865028
1.1732432 -0.52766484 -1.3005948
0.95226055 -0.63100249 -1.2798622
0.95080507 -0.42287979 -1.2827042
0.8086291 -0.53885734 -1.2753816
nan nan nan
nan nan nan
nan nan nan
nan nan nan
nan nan nan
17.236921 -11.067581 1.9546354
20.557262 -9.6805592 1.5785172
17.363819 -11.149086 0.96066666
20.75396 -9.7820053 0.53187531
16.964252 -10.896652 0
20.655602 -9.7444706 -0.52944136
20.376656 -13.094083 -1.1279045
18.43511 -8.6972256 -1.4086546
11.823064 -7.6022749 -1.2834505
11.13259 -5.2531414 -1.4267648
8.2258549 -5.2925248 -1.3715136
7.5857992 -3.5787609 -1.4637915
4.091094 -2.6389496 -1.3832369
6.0380974 -2.8465917 -1.5208924
3.3453567 -2.1615415 -1.3578694
3.0994952 -1.4533921 -1.3635212
2.0987499 -1.3648324 -1.3054019
2.6347611 -1.2325764 -1.3376942
1.8481071 -1.2060347 -1.3024393
1.7961458 -0.83181071 -1.3061787
1.4561397 -0.95605165 -1.2905674
1.440922 -0.66105217 -1.2986857
1.1688576 -0.7739892 -1.2796689
1.1730671 -0.53226513 -1.3023963
0.95423812 -0.63689119 -1.2855335
0.94798809 -0.42540318 -1.2807368
0.80429065 -0.54001927 -1.2713519
nan nan nan
nan nan nan
nan nan nan
nan nan nan
nan nan nan
17.312822 -11.193301 1.9672428
20.42592 -9.7016068 1.5708823
17.343525 -11.217457 0.96159834
20.644655 -9.8142977 0.5299024
16.911234 -10.941981 0
20.523314 -9.7610188 -0.5268302
nan nan nan
18.369408 -8.7368937 -1.4057195
11.772717 -7.625195 -1.2807157
11.129489 -5.2944875 -1.4284966
8.216568 -5.3251615 -1.372907
7.5656228 -3.5983469 -1.4620655
4.0823207 -2.6525013 -1.3832369
6.0357285 -2.8686824 -1.5225667
3.3342094 -2.1700418 -1.3562433
3.1012065 -1.4660914 -1.366321
2.0960598 -1.3729973 -1.3065705
2.6247234 -1.2379525 -1.3345293
1.8405168 -1.2097971 -1.2998679
