ply
format ascii 1.0
comment PCL generated
element vertex 1689
property float x
property float y
property float z
element camera 0
property float view_px
property float view_py
property float view_pz
property float x_axisx
property float x_axisy
property float x_axisz
property float y_axisx
property float y_axisy
property float y_axisz
property float z_axisx
property float z_axisy
property float z_axisz
property float focal
property float scalex
property float scaley
property float centerx
property float centery
property int viewportx
property int viewporty
property float k1
property float k2
end_header
4.8671284 4.6607609 -1.5354036
3.5052743 2.5588617 -1.4806468
2.6363475 2.5352647 -1.4577824
2.1551845 1.5635668 -1.3895459
2.2025647 2.1219215 -1.4073219
1.8786467 1.3583854 -1.369297
1.463367 1.4207323 -1.3466047
1.4597701 1.0493339 -1.3327823
1.1444685 1.1190556 -1.3115281
1.1756877 0.83815461 -1.3189645
0.92715412 0.91416568 -1.3168073
0.94458365 0.66826606 -1.2968765
0.74342006 0.7391181 -1.2925408
0.79602271 0.55988806 -1.2773963
16.846041 16.1119 6.2105799
18.184046 13.253036 5.1991353
nan nan nan
17.4869 12.754366 3.3839028
nan nan nan
17.398115 12.694259 2.0552576
nan nan nan
17.351612 12.655688 0.99991322
nan nan nan
17.28982 12.606008 0
nan nan nan
17.194563 12.531976 -0.99059951
nan nan nan
14.149282 10.305393 -1.5990716
10.032404 9.5403843 -1.6051465
8.6386681 6.2882662 -1.4986669
6.3720922 6.0604711 -1.534996
4.3400636 3.1513507 -1.524931
4.8817463 4.6454477 -1.5354036
3.519485 2.5513835 -1.4830861
2.6476502 2.5301766 -1.459649
2.1603575 1.5564114 -1.3895459
2.2092202 2.1149917 -1.4073219
1.881398 1.3508995 -1.3680112
1.467823 1.416128 -1.3466047
1.4695613 1.0493647 -1.3388129
1.1507227 1.1181307 -1.3147385
1.1753323 0.83235276 -1.3155475
0.92770934 0.90865433 -1.3132045
0.94935983 0.66717005 -1.3006575
0.74902052 0.74004155 -1.2984428
0.80020916 0.55907249 -1.281426
16.895172 16.046345 6.2080016
17.697363 12.804057 5.0469489
nan nan nan
17.733387 12.839523 3.4229672
nan nan nan
17.708607 12.821571 2.0864193
nan nan nan
17.749689 12.851302 1.0202935
nan nan nan
17.754993 12.850418 0
nan nan nan
17.974728 13.004642 -1.0329906
nan nan nan
14.183149 10.25448 -1.5988437
10.056469 9.4933195 -1.6034147
8.6505308 6.2508254 -1.496925
6.3942623 6.037076 -1.534996
4.3451862 3.131968 -1.5228674
4.9005103 4.6291971 -1.5359616
3.5322087 2.5418425 -1.4847124
2.6501801 2.514066 -1.4559158
2.1747711 1.5552809 -1.3953893
2.2185986 2.1084428 -1.4083768
1.8826077 1.3418386 -1.3654399
1.477494 1.415051 -1.3507867
1.4717648 1.0428253 -1.3373052
1.1561902 1.1152387 -1.3163439
1.1783751 0.82803941 -1.3155475
0.93211532 0.90662199 -1.3150059
0.953143 0.66461849 -1.3025481
0.75282586 0.73837483 -1.3004102
0.80712837 0.5594942 -1.2894853
16.916965 15.949512 6.1944666
17.86883 12.828582 5.082459
nan nan nan
18.045122 12.964646 3.4740217
nan nan nan
18.006119 12.936614 2.115916
nan nan nan
17.995441 12.928938 1.0317063
nan nan nan
17.968491 12.904824 0
nan nan nan
17.969526 12.900807 -1.0299627
nan nan nan
14.216349 10.195594 -1.59816
10.06402 9.4309216 -1.599085
8.666419 6.2117977 -1.4955317
6.4199386 6.0169678 -1.5358591
4.3571796 3.1152606 -1.5228674
4.915668 4.6095381 -1.5354036
3.5457921 2.5310061 -1.4863385
2.6593766 2.5043361 -1.4559158
2.1753159 1.5430878 -1.3918834
2.2279589 2.1018538 -1.4094318
1.8894981 1.3358359 -1.3667257
1.4811684 1.4081941 -1.3493927
1.4724919 1.0348777 -1.3342898
1.1644155 1.1149772 -1.3211597
1.1785474 0.82142705 -1.3121305
0.9331007 0.90062273 -1.3114032
0.95973086 0.66373557 -1.3082196
0.75345105 0.73332006 -1.2964755
0.80672973 0.5548619 -1.2854557
16.988405 15.905224 6.2002673
18.179304 12.955517 5.1579881
nan nan nan
18.204895 12.983312 3.4960678
nan nan nan
18.198845 12.983774 2.1335189
nan nan nan
18.180761 12.966082 1.039742
nan nan nan
18.139648 12.931989 0
nan nan nan
18.126308 12.91771 -1.0363679
nan nan nan
14.243998 10.144064 -1.5974765
10.06798 9.3721123 -1.5947553
8.6708326 6.1715426 -1.4927447
6.4596763 6.0141087 -1.5406061
4.363565 3.0980129 -1.5214918
4.9327083 4.594873 -1.5359616
3.5522366 2.5178678 -1.4855255
2.6761301 2.5034313 -1.4605823
2.1786129 1.5345945 -1.3907146
2.2398741 2.0991077 -1.4125966
1.8868933 1.3246427 -1.3615828
1.4828165 1.4004209 -1.3466047
1.4806499 1.0336598 -1.3388129
1.1639478 1.1071397 -1.3163439
1.1826247 0.81875664 -1.313839
0.94107592 0.90233421 -1.3186086
0.95911014 0.65887111 -1.3044385
0.75796223 0.73310119 -1.3004102
0.80979002 0.5530147 -1.2874705
17.026907 15.835637 6.1951108
18.327551 12.96972 5.1878624
nan nan nan
18.231724 12.911452 3.4929736
nan nan nan
18.235708 12.919038 2.1328051
nan nan nan
18.189013 12.881188 1.0377623
nan nan nan
18.157944 12.854433 0
nan nan nan
18.136425 12.834451 -1.0345045
nan nan nan
14.232835 10.065154 -1.5924629
10.069836 9.3116932 -1.590137
8.6750755 6.1313286 -1.4899578
6.4723549 5.9859648 -1.5388799
4.3600597 3.0738373 -1.5166769
4.942555 4.573523 -1.5342873
3.5663681 2.5101533 -1.4879647
2.682719 2.4929631 -1.459649
2.1855021 1.5286267 -1.3918834
2.2468228 2.0916686 -1.4125966
1.900076 1.3244992 -1.3680112
1.4904753 1.3983399 -1.3493927
1.4807884 1.0264764 -1.3357975
1.1717846 1.1072301 -1.3211597
1.1883451 0.81689268 -1.317256
0.9390533 0.89441437 -1.3114032
0.95858246 0.65384984 -1.3006575
0.75706196 0.72736722 -1.2945082
0.80793709 0.54784536 -1.281426
17.050142 15.746604 6.1835093
18.36075 12.897265 5.1844802
nan nan nan
18.258495 12.834951 3.4894927
nan nan nan
18.252396 12.830649 2.1292369
nan nan nan
18.227734 12.81331 1.0374128
nan nan nan
18.192476 12.783785 0
nan nan nan
18.170898 12.763889 -1.0339222
nan nan nan
14.229164 9.9882393 -1.5881331
10.083777 9.2562466 -1.586962
8.6781836 6.0882173 -1.4868225
6.4779296 5.9472094 -1.534996
4.3727326 3.0599766 -1.5173647
4.95749 4.5537276 -1.5337292
3.5789859 2.5003953 -1.4895909
2.6901345 2.4815402 -1.4587157
2.185375 1.5172122 -1.3883774
2.2578006 2.086499 -1.4147066
1.901159 1.3154225 -1.3654399
1.4955904 1.3928676 -1.3493927
1.4878265 1.0233026 -1.3388129
1.175835 1.1029278 -1.3211597
1.1913313 0.81253171 -1.317256
0.9446829 0.89351928 -1.3150059
0.96504354 0.65307283 -1.306329
0.75860977 0.72351944 -1.2925408
0.80870914 0.54405802 -1.2794112
17.078304 15.662499 6.173842
18.381683 12.816382 5.1777163
nan nan nan
18.305212 12.772552 3.4898794
nan nan nan
18.317484 12.781097 2.1316159
nan nan nan
18.280542 12.755321 1.0378786
nan nan nan
18.251343 12.730214 0
nan nan nan
18.223537 12.706096 -1.0343881
nan nan nan
14.253729 9.9313946 -1.5869937
10.108685 9.2142982 -1.5858073
8.6892214 6.0508156 -1.4850806
6.4968295 5.9229007 -1.5345644
4.3774633 3.0405827 -1.5153012
4.9769554 4.539681 -1.5348455
3.5799186 2.4825022 -1.4863385
2.705617 2.4784057 -1.4624488
2.1888371 1.5083222 -1.3872087
2.2634013 2.0770712 -1.4136516
1.9057393 1.3087783 -1.3654399
1.4974 1.3848164 -1.3466047
1.4880919 1.0158587 -1.3357975
1.1782779 1.0975082 -1.3195546
1.1911337 0.80632752 -1.313839
0.94653535 0.88902658 -1.3132045
0.96187657 0.64606488 -1.2987671
0.76559758 0.72512376 -1.3004102
0.80937004 0.54041362 -1.2773963
17.114162 15.580285 6.1661077
18.456577 12.768323 5.1856074
nan nan nan
18.329561 12.689911 3.4856248
nan nan nan
18.368296 12.716707 2.1320915
nan nan nan
18.323065 12.685391 1.0376458
nan nan nan
18.295822 12.661813 0
nan nan nan
18.265879 12.636373 -1.0341551
nan nan nan
14.226212 9.8313074 -1.5797014
10.116616 9.1538572 -1.5817664
8.722579 6.0244393 -1.4868225
6.5130186 5.8940907 -1.5332698
4.381187 3.0183015 -1.51255
4.9863367 4.514864 -1.5326129
3.5933216 2.4714153 -1.4879647
2.709538 2.463788 -1.459649
2.1964378 1.5011519 -1.3883774
2.270999 2.0687613 -1.4136516
1.9125239 1.3026563 -1.3667257
1.5070462 1.3835354 -1.3507867
1.4952875 1.0123688 -1.3388129
1.1836972 1.0944856 -1.3211597
1.2002897 0.80580598 -1.320673
0.95247263 0.88775539 -1.3168073
0.96707755 0.6441741 -1.3025481
0.76501381 0.71899909 -1.2945082
0.81629056 0.54069811 -1.2854557
17.141569 15.496149 6.1564398
18.476938 12.687277 5.1788435
nan nan nan
18.371712 12.624453 3.4852381
nan nan nan
18.357193 12.614464 2.125669
nan nan nan
18.336357 12.600142 1.0358989
nan nan nan
18.304874 12.573811 0
nan nan nan
18.293404 12.561234 -1.0332235
nan nan nan
14.17867 9.7291517 -1.5708139
10.14666 9.116827 -1.5814776
8.7384243 5.992682 -1.4861257
6.5353851 5.8729672 -1.5337014
4.3872032 3.0010438 -1.5111742
5.0111246 4.5055809 -1.5354036
3.599544 2.4581535 -1.4871516
2.719842 2.4558704 -1.4605823
2.2050636 1.4963388 -1.3907146
2.2782063 2.0608215 -1.4136516
1.9150558 1.2951076 -1.3654399
1.5103345 1.3768661 -1.3493927
1.4920101 1.0029637 -1.3327823
1.1889199 1.0916458 -1.3227651
1.1999141 0.79980236 -1.317256
0.9566806 0.88577271 -1.3186086
0.97467494 0.64455986 -1.31011
0.76514518 0.71434587 -1.2905736
0.81445551 0.53541744 -1.2794112
17.164108 15.413394 6.1461277
18.486708 12.603986 5.1698256
nan nan nan
18.401232 12.555109 3.4829173
nan nan nan
18.413174 12.567952 2.1275718
nan nan nan
18.373915 12.536453 1.035666
nan nan nan
18.340273 12.508815 0
nan nan nan
18.320513 12.490656 -1.0324084
nan nan nan
14.12855 9.6260204 -1.5616984
10.117836 9.0336256 -1.5725298
8.7868996 5.9831724 -1.4910028
6.5556393 5.8540473 -1.534133
4.3851976 2.9783814 -1.5070473
5.0252542 4.4898162 -1.5354036
3.6076758 2.4462035 -1.4871516
2.7258186 2.4457636 -1.459649
2.2045119 1.4853185 -1.3872087
2.2880383 2.0566876 -1.4157616
1.9211212 1.2899433 -1.3667257
1.5115803 1.369324 -1.3466047
1.4968174 0.99937153 -1.3342898
1.1923436 1.0879054 -1.3227651
1.2039446 0.79703343 -1.3189645
0.95451993 0.87788945 -1.3114032
0.97258657 0.63881028 -1.3044385
0.76964092 0.71404386 -1.2945082
0.81613362 0.53285605 -1.2794112
17.196177 15.334093 6.1383934
18.512436 12.527094 5.1647525
nan nan nan
18.43063 12.481107 3.4802098
nan nan nan
18.446751 12.492009 2.1261446
nan nan nan
18.398951 12.459639 1.0346178
nan nan nan
18.363121 12.430706 0
nan nan nan
18.353657 12.419631 -1.031826
nan nan nan
14.071315 9.5152931 -1.5516715
10.136013 8.9833012 -1.5702206
8.815938 5.9580069 -1.4923964
6.5678396 5.8218102 -1.5319753
4.3875937 2.9576852 -1.5042958
5.0343866 4.4648967 -1.5331711
3.6181548 2.4349144 -1.4879647
2.7261102 2.4280376 -1.4549825
2.217036 1.4825217 -1.3918834
2.2888017 2.0422459 -1.4115417
1.9273976 1.2844167 -1.3680112
1.5181303 1.3651643 -1.3479987
1.5087869 0.99937832 -1.3418282
1.1934867 1.0809498 -1.3195546
1.2007483 0.78861898 -1.3121305
0.95885581 0.87572426 -1.3132045
0.97766703 0.63702083 -1.3082196
0.76998985 0.70912117 -1.2905736
0.82430428 0.53386563 -1.2894853
17.250454 15.269362 6.1377487
18.529915 12.440155 5.1568613
nan nan nan
18.455748 12.3997 3.4763422
nan nan nan
18.469687 12.409049 2.123528
nan nan nan
18.42791 12.380978 1.0336862
nan nan nan
18.387806 12.349383 0
nan nan nan
18.378325 12.338355 -1.0306615
nan nan nan
14.05605 9.4265327 -1.5459743
10.139043 8.9198399 -1.5656023
8.8325787 5.9199781 -1.4913511
6.5928311 5.8009539 -1.5328383
4.3889246 2.9341419 -1.5008568
5.0525451 4.4480257 -1.5337292
3.6215765 2.4170699 -1.4855255
2.7419372 2.4241796 -1.4587157
2.222712 1.4739981 -1.3918834
2.2996621 2.0368516 -1.4136516
1.9305253 1.2758262 -1.3667257
1.5293092 1.365127 -1.3535748
1.5076082 0.99030006 -1.3373052
1.2002861 1.0791359 -1.3227651
1.208361 0.78698242 -1.317256
0.96605653 0.87553746 -1.3186086
0.9759773 0.63060874 -1.3025481
0.77270699 0.70615941 -1.2905736
0.82376027 0.52924818 -1.2854557
17.290951 15.19789 6.1332374
18.561062 12.367296 5.1534796
nan nan nan
18.496862 12.333832 3.4759552
nan nan nan
18.485973 12.326558 2.1204357
nan nan nan
18.471014 12.316578 1.0336862
nan nan nan
18.434959 12.287894 0
nan nan nan
18.398417 12.258904 -1.0293803
nan nan nan
14.188783 9.4474669 -1.5571408
10.186947 8.8991013 -1.5682001
8.8562841 5.8933978 -1.4920479
6.6019158 5.7681804 -1.530249
4.3986306 2.9195714 -1.5008568
5.0607047 4.4239435 -1.5314966
3.6315429 2.4063518 -1.4863385
2.7468987 2.4115307 -1.4568491
2.2238939 1.4641916 -1.3895459
2.3067579 2.0288119 -1.4136516
1.9383332 1.2717659 -1.369297
1.5263091 1.3528872 -1.3466047
1.512556 0.98638237 -1.3388129
1.2040458 1.0749395 -1.3227651
1.2109642 0.78297096 -1.317256
0.96381211 0.86767757 -1.3114032
0.97806317 0.62736881 -1.3025481
0.77732241 0.70567387 -1.2945082
0.82810336 0.52795345 -1.2894853
17.339434 15.13888 6.1325932
18.577593 12.289555 5.1467156
nan nan nan
18.515005 12.257431 3.4717007
nan nan nan
18.524607 12.268421 2.1204357
nan nan nan
18.484686 12.237341 1.0321722
nan nan nan
18.454758 12.212899 0
nan nan nan
18.436884 12.196446 -1.0292639
nan nan nan
14.176414 9.3715363 -1.5523551
10.211103 8.8637972 -1.5676228
8.7807522 5.8012433 -1.4760231
6.6237226 5.7506413 -1.5311122
4.4002576 2.899682 -1.4981053
5.0800953 4.4128199 -1.5331711
3.6375275 2.3929975 -1.4855255
2.7597013 2.4074667 -1.459649
2.226886 1.4556015 -1.3883774
2.3097095 2.0185692 -1.4115417
1.9371468 1.2618263 -1.3654399
1.5352184 1.3522067 -1.3507867
1.5139755 0.9805389 -1.3373052
1.2117109 1.0749749 -1.3275809
1.2118803 0.77817941 -1.3155475
0.96797359 0.86563528 -1.3132045
0.98002923 0.62429303 -1.3025481
0.7761088 0.70011801 -1.2886062
0.82599956 0.52298522 -1.2834408
17.377573 15.065601 6.1274366
18.624451 12.227304 5.1478424
nan nan nan
18.551487 12.188659 3.4705405
nan nan nan
18.565285 12.197708 2.1199598
nan nan nan
18.508505 12.160403 1.0311241
nan nan nan
18.482649 12.138802 0
nan nan nan
18.50231 12.14709 -1.0305449
nan nan nan
14.209042 9.3219948 -1.5523551
10.243523 8.826313 -1.5676228
8.5131426 5.5819349 -1.4276004
6.6354303 5.7182856 -1.5289545
4.4043164 2.8803606 -1.4960419
5.0962353 4.3941703 -1.5331711
3.6458583 2.3802857 -1.4855255
2.7702587 2.3988552 -1.4605823
2.2338088 1.4490203 -1.3895459
2.3222249 2.0145502 -1.4147066
1.9433413 1.2562188 -1.3667257
1.5386034 1.3452027 -1.3493927
1.519235 0.97606391 -1.3388129
1.2127708 1.067988 -1.3243704
1.2178067 0.77568775 -1.3189645
0.97098941 0.86225116 -1.3132045
0.98369581 0.62156737 -1.3044385
0.77866966 0.69726878 -1.2886062
0.83167779 0.52230453 -1.2894853
17.446529 15.019035 6.1332374
18.64661 12.148924 5.1422062
nan nan nan
18.575344 12.107098 3.4666729
nan nan nan
18.58482 12.117881 2.1173432
nan nan nan
18.559229 12.096574 1.0314735
nan nan nan
18.516542 12.064154 0
nan nan nan
18.506948 12.053298 -1.0283322
nan nan nan
14.167512 9.217145 -1.5439234
10.26979 8.7804604 -1.5664682
8.553194 5.5613475 -1.4307357
6.6648216 5.6991682 -1.5306805
4.4072747 2.8582006 -1.4932905
5.1112185 4.3729849 -1.5326129
3.6494279 2.3617806 -1.4830861
2.7829652 2.3912261 -1.4624488
2.2377474 1.438848 -1.3883774
2.3316596 2.0070989 -1.4157616
1.9447554 1.2460978 -1.3641541
1.5437572 1.3392849 -1.3493927
1.5164065 0.96568209 -1.3327823
1.2197444 1.0658509 -1.3275809
1.2209107 0.77079296 -1.3189645
0.97703904 0.8606441 -1.3168073
0.98201746 0.61501873 -1.2987671
0.77801204 0.69105345 -1.2827042
0.82873249 0.51584822 -1.281426
17.476221 14.917592 6.1216359
18.68915 12.065428 5.1399512
nan nan nan
18.617596 12.023825 3.4651256
nan nan nan
18.616602 12.027773 2.1152024
nan nan nan
18.580362 11.999763 1.0298431
nan nan nan
18.566912 11.986487 0
nan nan nan
18.567768 11.982441 -1.0289146
nan nan nan
14.245757 9.1833429 -1.5482532
10.304585 8.7357569 -1.5661796
8.5930653 5.5361929 -1.4335226
6.6848812 5.668015 -1.5298176
4.4131413 2.8358188 -1.4912271
5.1294909 4.3515368 -1.5326129
3.6612797 2.3477488 -1.4838992
2.7894285 2.3765371 -1.4605823
2.2437549 1.4294621 -1.3883774
2.3348784 1.9928957 -1.4125966
1.949958 1.2379408 -1.3641541
1.5477825 1.3314513 -1.3479987
1.5204383 0.95932174 -1.3327823
1.2184135 1.0557019 -1.3211597
1.2241287 0.76567203 -1.3189645
0.97672677 0.85311365 -1.3114032
0.98319286 0.61004072 -1.2968765
0.78551751 0.691881 -1.2905736
0.83088601 0.51237226 -1.281426
17.531872 14.859622 6.1229253
18.72295 11.994864 5.1376972
nan nan nan
18.646969 11.955357 3.463192
nan nan nan
18.645903 11.954659 2.1137753
nan nan nan
18.61795 11.936735 1.0297266
nan nan nan
18.579195 11.907317 0
nan nan nan
18.563236 11.892522 -1.0264689
nan nan nan
14.257763 9.1278076 -1.5464302
10.312988 8.6873407 -1.5632932
8.7021818 5.5678573 -1.4488508
6.7045374 5.6485729 -1.530249
4.4240546 2.8232324 -1.4919149
5.1356864 4.3291154 -1.5303805
3.6602509 2.3317983 -1.4806468
2.7968807 2.3677621 -1.4605823
2.2461178 1.4216181 -1.3872087
2.3463097 1.989953 -1.4157616
1.9463637 1.2275822 -1.3590112
1.5472304 1.3225305 -1.3438166
1.5198953 0.95269263 -1.3297669
1.2246244 1.0543751 -1.3243704
1.2248431 0.76107621 -1.317256
0.9818663 0.85249102 -1.3150059
0.98918265 0.6096859 -1.3025481
0.78756696 0.6895473 -1.2905736
0.83366698 0.51067412 -1.2834408
17.557766 14.776557 6.1139021
18.746204 11.917676 5.1326241
nan nan nan
18.682331 11.886215 3.4620314
nan nan nan
18.687519 11.889501 2.1137753
nan nan nan
18.636326 11.856929 1.0284456
nan nan nan
18.614317 11.838367 0
nan nan nan
18.619389 11.837029 -1.0272841
nan nan nan
14.266419 9.0633011 -1.5439234
10.348964 8.6560688 -1.5641592
8.984931 5.7045856 -1.4927447
6.7261014 5.6267152 -1.5306805
4.4216962 2.8000622 -1.4877878
5.1470299 4.308033 -1.5292642
3.6623716 2.3152208 -1.4782076
2.8104517 2.3624656 -1.463382
2.2510667 1.4137691 -1.3872087
2.3532419 1.9817508 -1.4157616
1.9506369 1.2207806 -1.3590112
1.5534179 1.3184668 -1.3452107
1.5282961 0.95053393 -1.3342898
1.2253883 1.0475979 -1.3211597
1.2259369 0.75584108 -1.3155475
0.98221558 0.84678859 -1.3114032
0.98990721 0.60537916 -1.3006575
0.7934522 0.68984103 -1.2964755
0.83291042 0.50623113 -1.2794112
17.605528 14.712079 6.1126127
18.781509 11.848269 5.1309333
nan nan nan
18.713266 11.814338 3.4600976
nan nan nan
18.728907 11.824196 2.1137753
nan nan nan
18.671267 11.787806 1.0280962
nan nan nan
18.642841 11.765315 0
nan nan nan
18.628908 11.751978 -1.0255373
nan nan nan
14.312714 9.0227385 -1.5455186
10.358105 8.6024351 -1.560984
9.0424967 5.6969323 -1.4990152
6.7457013 5.6032028 -1.5306805
4.4314432 2.7846107 -1.4877878
5.1639099 4.2915983 -1.5298223
3.6644206 2.2986569 -1.4757683
2.8151219 2.3496661 -1.4615155
2.2541111 1.4047353 -1.38604
2.3618822 1.9749798 -1.4168165
1.9621768 1.2184809 -1.3641541
1.5595961 1.3143759 -1.3466047
1.5265094 0.94205862 -1.3297669
1.2348731 1.0482857 -1.3275809
1.2316852 0.75345629 -1.3189645
0.98910809 0.84674603 -1.3168073
0.99201429 0.60192001 -1.3006575
0.79469091 0.6860556 -1.2945082
0.83848143 0.50560212 -1.2854557
17.636332 14.633567 6.1055226
18.812431 11.776176 5.1281147
nan nan nan
18.754393 11.748944 3.4600976
nan nan nan
18.744757 11.742894 2.1109207
nan nan nan
18.701717 11.715931 1.0275139
nan nan nan
18.681679 11.698841 0
nan nan nan
18.669819 11.68688 -1.0255373
nan nan nan
14.358898 8.9819632 -1.5471138
10.397648 8.5741272 -1.5624272
9.0518312 5.6587749 -1.4972734
6.7576232 5.5733533 -1.5289545
4.4309363 2.7627711 -1.4843487
5.1713424 4.2673397 -1.5275898
3.6663992 2.2821071 -1.4733289
2.821522 2.3383439 -1.4605823
2.2627623 1.3991799 -1.3883774
2.3652768 1.9638246 -1.4147066
1.9591119 1.2071329 -1.3590112
1.5657643 1.3102578 -1.3479987
1.5331929 0.93880242 -1.3327823
1.2355986 1.0414933 -1.3243704
1.226498 0.74443179 -1.3104219
0.99073958 0.84216237 -1.3150059
0.99270576 0.59761322 -1.2987671
0.7994169 0.68529248 -1.2984428
0.84024119 0.5026722 -1.2854557
17.677305 14.568855 6.1029449
18.83069 11.700874 5.1224785
nan nan nan
18.791153 11.685384 3.4597108
nan nan nan
18.78367 11.685263 2.1111586
nan nan nan
18.738344 11.652532 1.0273975
nan nan nan
18.70763 11.628909 0
nan nan nan
18.6915 11.614361 -1.0246055
nan nan nan
14.392834 8.936924 -1.5475695
10.372679 8.4989176 -1.554634
9.0957909 5.6443853 -1.5014538
6.7731938 5.5505342 -1.5285228
4.4380288 2.7467985 -1.4836608
5.1828394 4.2495265 -1.5270317
3.6658998 2.2649703 -1.4700767
2.8342223 2.3338952 -1.463382
2.2636206 1.3893598 -1.38604
2.3801703 1.9636033 -1.4199815
1.9667647 1.2028631 -1.3615828
1.5714666 1.3066611 -1.3493927
1.5327271 0.93190879 -1.3297669
1.2359301 1.0351399 -1.3211597
1.2319604 0.74245346 -1.313839
0.99484873 0.83999377 -1.3168073
0.99739069 0.59616345 -1.3025481
0.80039454 0.68177372 -1.2964755
0.83799213 0.49777386 -1.2794112
17.714968 14.496351 6.098433
18.861052 11.62868 5.1196599
nan nan nan
18.81081 11.606752 3.4558432
nan nan nan
18.813662 11.6085 2.1097312
nan nan nan
18.75765 11.573938 1.0262328
nan nan nan
18.726828 11.550413 0
nan nan nan
18.717047 11.539872 -1.0237902
nan nan nan
14.445141 8.8996849 -1.5498484
10.397979 8.4561405 -1.5537679
9.1070042 5.60741 -1.5000603
6.7858534 5.519455 -1.5267968
4.435298 2.7237487 -1.4795339
5.1870427 4.2212687 -1.523683
3.6717675 2.2509255 -1.4692636
2.8409626 2.3220227 -1.4624488
2.2684565 1.3814498 -1.38604
2.3820939 1.950554 -1.4168165
1.9727855 1.1971009 -1.3628683
1.5682515 1.2942774 -1.3424228
1.5344199 0.92526239 -1.3282591
1.2338296 1.0256919 -1.3147385
1.2362417 0.73886645 -1.3155475
0.99644899 0.83539921 -1.3150059
1.0009782 0.59333462 -1.3044385
0.80641282 0.68183434 -1.3023776
0.84492081 0.49768865 -1.2874705
17.761068 14.436004 6.0977888
18.878735 11.55336 5.1140232
nan nan nan
18.83445 11.535281 3.4531357
nan nan nan
18.828819 11.536338 2.1073525
nan nan nan
18.802319 11.515586 1.0265822
nan nan nan
18.724516 11.463452 0
nan nan nan
18.678524 11.43082 -1.0195978
19.10457 15.439898 -1.6980166
14.480946 8.8556299 -1.5505321
10.3878 8.3937721 -1.5482837
9.1466761 5.590085 -1.503544
6.7954998 5.4919162 -1.5250705
4.4484119 2.7115257 -1.4809095
5.2078567 4.2110844 -1.5259155
3.6731508 2.2350533 -1.4668242
2.8518424 2.3160124 -1.4643153
2.2730253 1.3739198 -1.38604
2.3934808 1.9473566 -1.4199815
1.9767445 1.1905524 -1.3628683
1.5771185 1.2932982 -1.3466047
1.5441722 0.92452037 -1.3342898
1.2414721 1.0254803 -1.3195546
1.2416993 0.73683608 -1.3189645
1.0005434 0.83320278 -1.3168073
1.0028373 0.59018695 -1.3044385
0.80619478 0.67730582 -1.2984428
0.8426407 0.49280167 -1.281426
17.785038 14.352679 6.0887656
18.910622 11.482335 5.1117687
nan nan nan
18.868267 11.46562 3.4519753
nan nan nan
18.870975 11.46725 2.1073525
nan nan nan
18.821056 11.436916 1.0254176
nan nan nan
18.777237 11.405807 0
nan nan nan
18.773817 11.399244 -1.0226257
19.260244 15.449368 -1.7068219
14.498998 8.7972803 -1.5491647
10.38363 8.3276701 -1.5430881
9.1809521 5.5671058 -1.5059825
6.8059812 5.4592657 -1.5229129
4.4557924 2.6947386 -1.4802217
5.2042561 4.1767087 -1.5203342
3.6809304 2.2222183 -1.4668242
2.8639212 2.3084581 -1.4661819
2.277807 1.365977 -1.38604
2.397078 1.93572 -1.4178715
1.9845717 1.1858407 -1.3654399
1.5802404 1.2861969 -1.3452107
1.549263 0.91987526 -1.3357975
1.2407825 1.0172697 -1.3147385
1.2396677 0.72951192 -1.313839
1.0007789 0.82748955 -1.3132045
1.0007492 0.58404404 -1.2987671
0.81103522 0.67632949 -1.3023776
0.84572387 0.49044865 -1.2834408
17.829374 14.285978 6.0868316
18.92972 11.403688 5.1061325
nan nan nan
18.895483 11.392035 3.4496546
nan nan nan
18.930073 11.41287 2.1094935
nan nan nan
18.852308 11.365993 1.0249517
nan nan nan
18.801947 11.331161 0
nan nan nan
18.766428 11.305297 -1.0200636
19.35112 15.411569 -1.7101022
14.557348 8.7633066 -1.5521274
10.373788 8.2604294 -1.5373152
9.2173023 5.5452299 -1.5087694
6.8326988 5.4416127 -1.5246389
4.4589872 2.6754615 -1.4781582
5.2207093 4.1600361 -1.5208924
3.6886649 2.2093558 -1.4668242
2.8719618 2.2984471 -1.4661819
2.2768607 1.354633 -1.382534
2.4126558 1.9344373 -1.4231462
1.9831625 1.1756318 -1.3615828
1.5847204 1.280673 -1.3452107
1.5455858 0.91042268 -1.3297669
1.2502624 1.0177827 -1.3211597
1.2406287 0.72426289 -1.3121305
1.0063357 0.82619739 -1.3168073
1.0027817 0.58054721 -1.2987671
0.81102079 0.67151952 -1.2984428
0.8500008 0.48896188 -1.2874705
17.846413 14.202706 6.0765195
18.967434 11.340851 5.1061325
nan nan nan
18.931036 11.328047 3.4492681
nan nan nan
18.914579 11.32267 2.1037841
nan nan nan
18.864182 11.288029 1.0235543
nan nan nan
18.852293 11.276448 0
nan nan nan
18.820963 11.253253 -1.0209953
19.368151 15.325934 -1.7073399
14.622662 8.7366858 -1.5560013
10.366585 8.2015991 -1.5324084
9.248395 5.5222464 -1.5108596
6.8458991 5.4170637 -1.5237758
4.4616375 2.6569731 -1.4760946
5.2203822 4.1330209 -1.5169855
3.6898727 2.193491 -1.464385
2.8737249 2.285079 -1.463382
2.2813404 1.347075 -1.382534
2.4116349 1.9211934 -1.4189265
1.9925973 1.1723047 -1.3654399
1.593585 1.2795926 -1.3493927
1.5484418 0.90555757 -1.3297669
1.2504778 1.0114341 -1.3179492
1.2413172 0.71944952 -1.3104219
1.0077291 0.82175702 -1.3150059
1.006021 0.57820576 -1.3006575
0.81550294 0.67093569 -1.3023776
0.84509575 0.48263836 -1.2773963
17.89209 14.137327 6.0752306
18.988052 11.263393 5.1010594
nan nan nan
18.95772 11.254333 3.4469471
nan nan nan
18.913153 11.227866 2.0990267
nan nan nan
18.901321 11.220838 1.0234379
nan nan nan
18.87434 11.200369 0
nan nan nan
18.857983 11.186213 -1.0208788
19.404581 15.239438 -1.7056134
14.674487 8.6982813 -1.5582801
10.367284 8.1405373 -1.5280787
9.2867861 5.5012817 -1.5139949
6.8598995 5.3873715 -1.5224812
4.460536 2.6352749 -1.4726555
5.2297482 4.1093402 -1.5153111
3.691396 2.1769979 -1.4619457
2.878442 2.2716546 -1.4615155
2.2822125 1.3368727 -1.3801967
2.4151065 1.9095267 -1.4168165
1.987413 1.159948 -1.3590112
1.5917796 1.268561 -1.3438166
1.5500205 0.89888322 -1.3282591
1.255669 1.0080466 -1.3195546
1.2455298 0.71580148 -1.3121305
1.0119361 0.81932837 -1.3168073
1.0124031 0.57693422 -1.306329
0.81438094 0.66500413 -1.2964755
0.84814918 0.48026311 -1.2794112
17.922327 14.059875 6.0687852
19.025154 11.195808 5.1004958
nan nan nan
18.984118 11.180569 3.4446266
nan nan nan
18.960808 11.166828 2.0999782
nan nan nan
18.942526 11.156057 1.0235543
nan nan nan
18.911167 11.133147 0
nan nan nan
18.916285 11.131716 -1.021927
nan nan nan
14.648958 8.6142006 -1.5523551
10.360389 8.0768108 -1.5228831
9.3208752 5.4776077 -1.5164335
6.8786626 5.3633928 -1.5224812
4.4717813 2.6209028 -1.4733434
5.2286944 4.0790634 -1.5108461
3.6887672 2.1581354 -1.4578803
2.8790555 2.2558665 -1.4577824
2.2887769 1.3300068 -1.3813653
2.4217572 1.9010849 -1.4168165
1.9970195 1.1562207 -1.3628683
1.5994495 1.2655767 -1.3466047
1.5496888 0.89148319 -1.3252438
1.256187 1.0012628 -1.3163439
1.2480209 0.71144938 -1.3121305
1.0107445 0.81252325 -1.3114032
1.0087067 0.57019049 -1.2987671
0.81669736 0.66215742 -1.2964755
0.85111296 0.47802049 -1.281426
17.942181 13.979578 6.059762
19.051657 11.126516 5.0976772
nan nan nan
19.02109 11.117555 3.4446266
nan nan nan
19.000092 11.109718 2.1004539
nan nan nan
18.975105 11.090661 1.0233214
nan nan nan
18.932873 11.061547 0
nan nan nan
18.937998 11.060112 -1.0211118
nan nan nan
14.675295 8.5643225 -1.5521274
10.362156 8.0259714 -1.5194194
9.313324 5.4317079 -1.5122532
6.9013176 5.3462825 -1.5237758
4.4804482 2.6060596 -1.4733434
5.2376323 4.059629 -1.5097299
3.6979485 2.1470771 -1.4586934
2.8861284 2.2468104 -1.4577824
2.2893441 1.320205 -1.3790281
2.4330759 1.8976536 -1.4199815
2.0045631 1.1517243 -1.3654399
1.5985284 1.2566916 -1.3424228
1.5542184 0.8875919 -1.3267516
1.2638272 1.0008889 -1.3211597
1.2502497 0.70752513 -1.3121305
1.0134332 0.80916697 -1.3114032
1.0176357 0.57100415 -1.3082196
0.81877351 0.6595884 -1.2964755
0.85390544 0.4760612 -1.2834408
17.979404 13.907994 6.0558953
19.079842 11.053843 5.0948596
nan nan nan
19.04055 11.039942 3.4411457
nan nan nan
19.019154 11.027525 2.0980752
nan nan nan
19.000738 11.016843 1.0226226
nan nan nan
18.977856 10.999153 0
nan nan nan
18.946238 10.976416 -1.0194814
nan nan nan
14.683553 8.5005732 -1.5498484
10.363944 7.9667463 -1.5153784
9.3429422 5.4053612 -1.5139949
6.9091554 5.3119435 -1.5211867
4.4832706 2.586803 -1.4712799
5.2544074 4.0418921 -1.510288
3.6992733 2.1306193 -1.456254
2.8888409 2.2319593 -1.4549825
2.3016157 1.3165883 -1.3837028
2.4328506 1.883168 -1.4157616
2.0048435 1.1426007 -1.3628683
1.6096615 1.2559392 -1.3479987
1.5574578 0.88189453 -1.3267516
1.2629732 0.99268907 -1.3163439
1.2528347 0.70293796 -1.3121305
1.0176075 0.80670458 -1.3132045
1.0168588 0.56568682 -1.3044385
0.81878185 0.65464908 -1.2925408
0.85045469 0.47007987 -1.2753816
17.993858 13.814052 6.0436492
19.113892 10.980199 5.0931687
nan nan nan
19.072319 10.965158 3.4395986
nan nan nan
19.070232 10.963943 2.0992646
nan nan nan
19.038824 10.945883 1.0225061
nan nan nan
18.994198 10.915822 0
nan nan nan
18.975517 10.900676 -1.0188991
nan nan nan
14.700968 8.4354582 -1.5482532
10.353592 7.8985758 -1.5096055
9.3571863 5.3657546 -1.5129499
6.9501081 5.3030214 -1.5259336
4.4973445 2.5719543 -1.4726555
5.2653136 4.0196471 -1.5091717
3.7094805 2.1175704 -1.4570671
2.9025207 2.2255938 -1.4577824
2.3028071 1.3055645 -1.3813653
2.4433289 1.8770028 -1.4178715
2.0073481 1.1338418 -1.3615828
1.6093363 1.2462126 -1.3438166
1.5625727 0.87688124 -1.3282591
1.2696211 0.99041647 -1.3195546
1.2571213 0.69900638 -1.313839
1.0206976 0.80279142 -1.3132045
1.0233269 0.56413716 -1.31011
0.81526172 0.6466884 -1.2827042
0.85477197 0.46837428 -1.2794112
18.039568 13.754305 6.0436492
19.131153 10.9059 5.0880957
nan nan nan
19.095705 10.894508 3.4372778
nan nan nan
19.065674 10.881777 2.0949829
nan nan nan
19.081528 10.886401 1.0228556
nan nan nan
19.025949 10.850299 0
nan nan nan
19.011555 10.837696 -1.0188991
nan nan nan
14.74903 8.4015522 -1.5505321
10.218072 7.7444801 -1.4862254
9.3761473 5.3375554 -1.5132982
6.9451528 5.2647915 -1.5211867
4.4949484 2.5518837 -1.4692162
5.2662692 3.994246 -1.5058229
3.7058277 2.1000838 -1.4530016
2.9094982 2.2164645 -1.4577824
2.3088241 1.2994058 -1.382534
2.4546149 1.8734474 -1.4210364
2.0109003 1.1275299 -1.3615828
1.618173 1.2449538 -1.3479987
1.565171 0.87223601 -1.3282591
1.269701 0.98406929 -1.3163439
1.2575903 0.69439399 -1.3121305
1.0273048 0.80279249 -1.3186086
1.0235593 0.56031638 -1.3082196
0.82080209 0.64714301 -1.2886062
0.85754144 0.46638986 -1.281426
18.037399 13.653341 6.0268917
19.175467 10.842649 5.0897865
nan nan nan
19.13147 10.82657 3.4368911
nan nan nan
19.114094 10.816727 2.0959344
nan nan nan
19.08246 10.798821 1.0208757
nan nan nan
19.048475 10.775205 0
nan nan nan
19.036228 10.763894 -1.0182003
nan nan nan
14.778267 8.3500166 -1.5505321
10.321793 7.7637153 -1.4971938
9.3860979 5.2999268 -1.5119047
6.9644022 5.2393007 -1.5211867
4.499639 2.5338213 -1.4678407
5.2828193 3.9763837 -1.506381
3.7172589 2.0894501 -1.4546278
2.9194517 2.2071855 -1.4587157
2.3075538 1.2881122 -1.3790281
2.4596596 1.8630683 -1.4199815
2.012949 1.1194636 -1.360297
1.6177816 1.2352296 -1.3438166
1.568354 0.86649865 -1.3282591
1.27785 0.98292261 -1.3211597
1.2601268 0.68978006 -1.3121305
1.0314679 0.80026752 -1.32041
1.0241665 0.55578423 -1.306329
0.82074457 0.64222151 -1.2846714
0.86576939 0.46673614 -1.2915001
18.098907 13.595846 6.0307589
19.206577 10.76753 5.0875316
nan nan nan
19.173174 10.757585 3.4372778
nan nan nan
19.134077 10.73564 2.0937934
nan nan nan
19.095776 10.714149 1.0194783
nan nan nan
19.096561 10.710206 0
nan nan nan
19.053772 10.681835 -1.0170357
nan nan nan
14.849323 8.3151007 -1.5546341
10.350179 7.725832 -1.4971938
9.4128609 5.2674737 -1.5129499
6.9717212 5.2048974 -1.5185974
4.4988384 2.5106733 -1.4644015
5.2875991 3.9496987 -1.5035903
3.7231884 2.074012 -1.4538146
2.9238133 2.1936841 -1.4568491
2.3163524 1.2813784 -1.3813653
2.4755244 1.8608577 -1.4252561
2.011596 1.1086274 -1.3564398
1.6222981 1.2292917 -1.3438166
1.5716696 0.86047024 -1.3282591
1.2784016 0.97590125 -1.3179492
1.2627661 0.68493646 -1.3121305
1.0317906 0.79417992 -1.3168073
1.0262929 0.55184764 -1.306329
0.82442015 0.64001507 -1.2866389
0.86224467 0.46078503 -1.2834408
18.130344 13.525643 6.0262475
19.231537 10.697862 5.0847135
nan nan nan
19.18716 10.681932 3.4334099
nan nan nan
19.169884 10.676685 2.0940313
nan nan nan
19.120289 10.644691 1.018896
nan nan nan
19.107943 10.633452 0
nan nan nan
19.091267 10.619809 -1.0171522
nan nan nan
14.908013 8.2865477 -1.5580522
10.366421 7.6873589 -1.4960393
9.4271975 5.2366743 -1.5126015
6.9722199 5.1712298 -1.5151451
4.5088072 2.4976912 -1.4650893
5.2823744 3.919991 -1.4985672
3.7214079 2.0577335 -1.4505624
2.9288318 2.1831005 -1.4559158
2.3203664 1.2740951 -1.3813653
2.4759135 1.8489983 -1.4220914
2.0169511 1.1033293 -1.3577255
1.6228396 1.2216884 -1.3410288
1.5724659 0.85484815 -1.3267516
1.2799363 0.97071934 -1.3163439
1.2647929 0.68118668 -1.3121305
1.0342805 0.7909345 -1.3168073
1.0207012 0.54496521 -1.2968765
0.82753378 0.63851225 -1.2886062
0.86892623 0.46083224 -1.2915001
18.161917 13.45077 6.021091
19.258099 10.624784 5.0818954
nan nan nan
19.22217 10.613699 3.4330232
nan nan nan
19.211065 10.607556 2.0942693
nan nan nan
19.168262 10.58392 1.0194783
17.21983 12.683295 0.49572453
19.144943 10.566688 0
17.188026 12.650614 -0.49468303
19.130407 10.554312 -1.0172687
17.149668 12.622366 -1.4716721
14.954291 8.244072 -1.5598754
10.394526 7.649313 -1.4960393
9.4389143 5.2001529 -1.5115564
6.9712982 5.1310387 -1.5108296
4.5174975 2.4819372 -1.4650893
5.2986679 3.9020503 -1.4991254
3.7264946 2.0435953 -1.4497492
2.925632 2.164068 -1.4503162
2.3286834 1.2680981 -1.3837028
2.4844937 1.8412622 -1.4231462
2.0189044 1.0952618 -1.3564398
1.6273063 1.2157321 -1.3410288
1.5826126 0.85285854 -1.3327823
1.2819564 0.9648664 -1.3147385
1.2721161 0.67911613 -1.317256
1.0342788 0.78521657 -1.3132045
1.0226917 0.54122055 -1.2968765
0.83231217 0.63735819 -1.2925408
0.86667317 0.45559004 -1.2854557
18.179955 13.361222 6.0107784
19.290499 10.550622 5.0802045
nan nan nan
19.247942 10.536059 3.4307027
nan nan nan
19.234533 10.528708 2.0926042
17.36174 12.699238 1.4941862
19.176258 10.496809 1.0178479
17.27849 12.624454 0.49601462
19.165997 10.486849 0
17.23226 12.586056 -0.49462497
19.147055 10.472137 -1.0161041
17.272343 12.61533 -1.4782326
15.014242 8.2021036 -1.562838
10.400435 7.5950494 -1.4928641
9.4588118 5.1638718 -1.5115564
6.9681878 5.0894694 -1.5060827
4.5122147 2.4565349 -1.4602745
5.3030992 3.8754103 -1.4963348
3.7384696 2.0315268 -1.4513755
2.9316754 2.1519568 -1.4493829
2.3335354 1.2591473 -1.3837028
2.4839265 1.8267664 -1.4189265
2.0306535 1.0915544 -1.3615828
1.6334169 1.2109978 -1.3424228
1.584115 0.84583861 -1.3312745
1.2854841 0.96016133 -1.3147385
1.2666396 0.66997474 -1.3087134
1.037286 0.78123945 -1.3132045
1.0276636 0.53880191 -1.3006575
0.83107698 0.63134682 -1.2866389
0.87096637 0.4537704 -1.2894853
18.220629 13.293409 6.0088453
19.318645 10.478578 5.0779495
17.607777 12.813282 4.1946354
19.295456 10.474699 3.4326365
17.530018 12.737997 2.6410394
19.260231 10.455568 2.0914147
17.510897 12.714767 1.5032092
19.210585 10.428616 1.0177314
17.900795 12.988408 0.51266837
19.178314 10.40677 0
17.723232 12.850101 -0.50744903
19.159342 10.392148 -1.014823
17.911877 12.986899 -1.5291647
15.104836 8.1866636 -1.5694464
10.372606 7.5193362 -1.4850707
9.47153 5.1301193 -1.5108596
6.95402 5.0419793 -1.4991779
4.5224514 2.4426997 -1.4609623
5.2929306 3.839695 -1.4896373
3.7326965 2.0123935 -1.4464968
2.9429159 2.1444445 -1.4512494
2.3337994 1.2493194 -1.3813653
2.4847999 1.8140708 -1.4157616
2.0380478 1.0868282 -1.3641541
1.6409733 1.2077535 -1.3452107
1.579857 0.83685684 -1.3252438
1.285753 0.95337969 -1.3115281
1.2672366 0.66492575 -1.3070049
1.0426424 0.77987844 -1.3168073
1.0279915 0.53463978 -1.2987671
0.8393088 0.63325173 -1.2964755
0.87122804 0.45005202 -1.2874705
18.258743 13.228662 6.0069118
19.34042 10.407535 5.0745678
17.861048 12.907248 4.2448363
19.308338 10.398946 3.4287689
18.075216 13.042874 2.7167745
19.296989 10.392821 2.0916526
18.020222 12.993628 1.5432924
14.992575 8.0751247 0.7925005
17.986582 12.955062 0.51382893
19.22813 10.351409 0
17.986814 12.950461 -0.51377404
19.217892 10.341566 -1.0161041
17.981153 12.946378 -1.531409
15.131128 8.1327095 -1.5692188
10.324941 7.4326558 -1.4746797
9.4915609 5.0981979 -1.5112079
6.9447284 5.0001798 -1.4935679
4.5267115 2.4246304 -1.4595866
5.2720299 3.7978947 -1.4801491
3.7438693 2.0015788 -1.448123
2.9443772 2.1305909 -1.4484496
2.338146 1.2411653 -1.3813653
2.4926355 1.8071526 -1.4168165
2.0361397 1.0767066 -1.360297
1.6416218 1.1998516 -1.3424228
1.579235 0.82948732 -1.3222284
1.2935311 0.9525283 -1.3163439
1.2663087 0.65881944 -1.3035879
1.0411904 0.77312404 -1.3114032
1.0269401 0.52955568 -1.2949861
0.83658695 0.6266039 -1.2886062
0.87007731 0.44581848 -1.2834408
18.201208 13.0855 5.9721074
19.365541 10.329701 5.0711861
18.153584 13.017674 4.3030887
19.346323 10.328108 3.4287689
18.120882 12.975094 2.7164714
19.304214 10.305619 2.0883224
18.112345 12.959423 1.5471098
14.993431 8.0048351 0.79098654
18.099007 12.935563 0.5156858
19.28138 10.289102 0
18.080929 12.917871 -0.51510864
19.260073 10.273409 -1.0163369
18.065006 12.906487 -1.5345167
15.185006 8.0900707 -1.5717255
10.368276 7.4063125 -1.4769888
9.5101824 5.063375 -1.5112079
6.9549952 4.9689641 -1.4918418
4.5334449 2.4068968 -1.4588988
5.2621307 3.7615314 -1.4734516
3.7365537 1.9801024 -1.4424313
2.9578152 2.123847 -1.4512494
2.3348525 1.2284781 -1.3766906
2.4992423 1.7980046 -1.4168165
2.0438724 1.0712231 -1.3628683
1.6409734 1.1901643 -1.3382407
1.5840347 0.82461184 -1.3237362
1.298559 0.94891441 -1.3179492
1.273586 0.65667403 -1.3087134
1.0495896 0.77342916 -1.3186086
1.0332494 0.52801096 -1.3006575
0.84011316 0.62445748 -1.2905736
0.86906224 0.44129413 -1.2794112
18.227114 13.007853 5.9656625
19.397173 10.259762 5.0700583
18.2789 13.011177 4.322032
19.36916 10.253581 3.4264481
18.240896 12.964963 2.7276804
19.346668 10.241665 2.089036
18.216433 12.938008 1.552142
15.083084 7.9851575 0.79424739
18.176451 12.900068 0.51667225
19.272982 10.198354 0
18.140181 12.864801 -0.51551479
19.242832 10.178105 -1.0135419
18.097746 12.834692 -1.5334809
15.255774 8.0629311 -1.5762831
10.284692 7.2924905 -1.4614019
9.5225439 5.0294991 -1.5105114
6.9763136 4.947506 -1.4927049
4.5477829 2.3952076 -1.4609623
5.2871509 3.7516062 -1.4768004
3.7451925 1.9687997 -1.4432445
2.9633234 2.1121619 -1.4503162
2.3408737 1.2217495 -1.3778594
2.5091901 1.7919073 -1.4189265
2.0531237 1.0674007 -1.3667257
1.6501657 1.1880736 -1.3424228
1.5885338 0.82026702 -1.3252438
1.30961 0.95001644 -1.3259758
1.2773831 0.65327507 -1.3104219
1.0493554 0.76789033 -1.3150059
1.030612 0.5223735 -1.2949861
0.84341753 0.6225881 -1.2925408
0.8705973 0.43825787 -1.2794112
18.343063 12.999022 5.9895101
19.426775 10.19312 5.0689316
18.277849 12.919313 4.3116136
19.396492 10.18585 3.4252877
18.25338 12.882935 2.7231362
19.350105 10.165792 2.0859435
18.228666 12.855964 1.5495392
19.339277 10.155791 1.0170326
18.186441 12.816681 0.51574379
19.295626 10.128576 0
18.166204 12.797671 -0.51510864
19.265419 10.108437 -1.0129596
18.11759 12.763409 -1.5317544
15.022229 7.8759212 -1.5493926
10.346121 7.2873225 -1.4668863
9.5325899 4.9944477 -1.5094662
6.9737082 4.912796 -1.488821
4.5684853 2.3867855 -1.4650893
5.2949276 3.732168 -1.4756842
3.7517009 1.9563694 -1.4432445
2.9699442 2.1028419 -1.4503162
2.3527663 1.2180375 -1.382534
2.5203497 1.7879543 -1.4220914
2.0528386 1.058625 -1.3641541
1.6471447 1.1780455 -1.3368468
1.5912452 0.81499475 -1.3252438
1.3079295 0.94252765 -1.3211597
1.2826873 0.65090472 -1.313839
1.0546961 0.76645112 -1.3186086
1.0366378 0.5213275 -1.3006575
0.84288704 0.61810321 -1.2886062
0.87462193 0.43683541 -1.2834408
18.37845 12.927964 5.9862871
19.444952 10.116254 5.0644221
18.328863 12.859664 4.3130341
19.412214 10.107818 3.4218068
18.304335 12.823411 2.724045
19.409309 10.106293 2.0883224
18.238703 12.76794 1.5465894
19.392332 10.097446 1.0179642
18.255646 12.770315 0.51644015
nan nan nan
18.221182 12.736732 -0.51534075
nan nan nan
18.156073 12.691203 -1.5310638
15.144622 7.8728013 -1.5591917
10.507082 7.3432665 -1.4859368
9.5433741 4.9577198 -1.5084211
6.9876318 4.8843803 -1.487958
4.5874624 2.3763473 -1.4685285
5.3185539 3.7197235 -1.4784749
3.7543056 1.9410921 -1.4416183
2.9757345 2.0906079 -1.4493829
2.3511024 1.206795 -1.3790281
2.5250337 1.7773986 -1.4210364
2.0565214 1.0514528 -1.3641541
1.6582144 1.176814 -1.3424228
1.5923008 0.80853486 -1.3237362
1.3113753 0.93772757 -1.3211597
1.2899606 0.64864975 -1.3189645
1.0531546 0.75971246 -1.3132045
1.0341438 0.51534629 -1.2949861
0.84639132 0.61592126 -1.2905736
0.87488866 0.43297428 -1.281426
18.411846 12.850836 5.9817753
19.477568 10.042686 5.0632944
18.383932 12.79801 4.3149285
19.460104 10.042261 3.4237406
18.355288 12.75907 2.7246509
19.463913 10.044213 2.0902252
18.320192 12.725195 1.5495392
19.429211 10.026303 1.0179642
18.300438 12.697274 0.5163241
nan nan nan
18.259527 12.664164 -0.51510864
13.84565 7.1395202 -0.72484028
18.19017 12.61604 -1.5300277
15.362885 7.9114523 -1.5785619
10.566571 7.327354 -1.490555
9.5513344 4.9153781 -1.5066793
6.9953723 4.851717 -1.4858003
4.5879974 2.3543293 -1.4657772
5.3361549 3.702985 -1.4795911
3.7575216 1.9245092 -1.4399921
2.9814754 2.0783594 -1.4484496
2.3557189 1.1977586 -1.3790281
2.5371022 1.7720302 -1.4242013
2.0643711 1.045482 -1.3667257
1.6642116 1.1719255 -1.3438166
1.5936109 0.80152136 -1.3222284
1.3101202 0.92957938 -1.3163439
1.2859008 0.64044929 -1.3121305
1.0574712 0.75667506 -1.3150059
1.0346462 0.51065117 -1.2930956
0.85124612 0.61448026 -1.2945082
0.88046217 0.43170771 -1.2874705
18.444433 12.782828 5.9785528
19.499922 9.972497 5.0604768
18.408096 12.724411 4.3106661
19.471312 9.966423 3.419873
18.364822 12.675573 2.7198038
19.471004 9.970541 2.0876086
18.333551 12.644547 1.5471098
12.581809 6.440865 0.65752506
18.288792 12.604257 0.51487339
12.411839 6.3511534 0
18.288935 12.599648 -0.51481849
13.411202 6.8593807 -0.70084977
18.209179 12.544682 -1.5283014
nan nan nan
10.605898 7.3053937 -1.4928641
9.5623178 4.8830962 -1.5059825
7.0065255 4.8269215 -1.4849371
4.6446438 2.3649666 -1.4815973
5.3537788 3.6903541 -1.4812654
3.761441 1.9116251 -1.4391789
2.9803667 2.0636961 -1.4447165
2.3535478 1.1873708 -1.375522
2.5370731 1.7601703 -1.4210364
2.0638118 1.03707 -1.3641541
1.6661863 1.1654997 -1.3424228
1.6014781 0.7991749 -1.3267516
1.3192923 0.9298867 -1.3227651
1.2894332 0.63743699 -1.313839
1.0612538 0.75435686 -1.3168073
1.0420401 0.51044351 -1.3006575
0.85056412 0.61014581 -1.2905736
0.87914842 0.42765266 -1.2834408
18.471869 12.730385 5.9766192
19.519447 9.9181032 5.0587854
18.376436 12.636271 4.2959847
19.517151 9.9254875 3.4233537
18.369148 12.6124 2.7158659
19.501476 9.9217892 2.0880845
18.34383 12.5856 1.5453748
12.350435 6.2844291 0.64459813
18.346333 12.577907 0.5156278
nan nan nan
18.294928 12.537963 -0.51412219
13.354455 6.7892542 -0.69700658
18.227434 12.491691 -1.5272654
nan nan nan
10.631909 7.2850733 -1.4940187
9.5645437 4.8569059 -1.5045891
6.9817433 4.7847195 -1.4771694
4.5942335 2.3262169 -1.4637135
5.356112 3.6740599 -1.4795911
3.7678792 1.9041508 -1.4399921
2.9869502 2.0582459 -1.4456497
2.3560295 1.1824389 -1.375522
2.5391963 1.7531201 -1.4199815
2.0659792 1.0327454 -1.3641541
1.6737279 1.1655722 -1.3466047
1.6013608 0.79493475 -1.3252438
1.3134027 0.92160326 -1.3147385
1.2858474 0.63232791 -1.3087134
1.0571808 0.74811381 -1.3096018
1.0431069 0.50825995 -1.3006575
0.85058761 0.60746264 -1.2886062
0.88404465 0.42773241 -1.2894853
18.494478 12.646235 5.9688854
19.557842 9.8475885 5.0593491
18.441044 12.576684 4.2997732
19.564428 9.8594437 3.4252877
18.409235 12.536187 2.714654
10.049296 5.0654902 1.0723495
18.37965 12.506653 1.5443336
9.823103 4.9515219 0.51136953
18.342934 12.467624 0.51411909
9.3992062 4.7358961 0
18.336843 12.458803 -0.51389003
nan nan nan
18.262991 12.408607 -1.5260569
11.129602 5.5975995 -1.137148
10.646691 7.2325649 -1.4919982
9.5803785 4.8145776 -1.5038923
7.0070028 4.760808 -1.4784639
4.6426249 2.3263173 -1.4760946
5.3774986 3.655704 -1.4812654
3.7715926 1.8862389 -1.4383659
2.9936311 2.0444069 -1.4447165
2.3572059 1.1701857 -1.3731847
2.5465176 1.7424685 -1.4199815
2.064697 1.0208762 -1.360297
1.6770911 1.1570773 -1.3452107
1.6066055 0.78881639 -1.3267516
1.3221265 0.91915417 -1.3195546
1.2936324 0.6288712 -1.313839
1.0632689 0.74549091 -1.3132045
1.0498291 0.50564021 -1.306329
0.85459197 0.60449129 -1.2905736
0.88055468 0.42133158 -1.281426
18.496542 12.553109 5.9553504
19.58992 9.7781715 5.0587854
18.4828 12.51086 4.2992997
19.572208 9.7778492 3.4206464
18.47961 12.489917 2.7185922
10.022388 5.008141 1.067592
18.410793 12.434042 1.5432924
9.8380919 4.9160867 0.51125306
18.398682 12.416515 0.51452523
9.3217373 4.6561584 0
18.353283 12.376551 -0.51313573
nan nan nan
18.289654 12.333624 -1.5246757
10.508661 5.2418475 -1.0717449
10.669813 7.1939688 -1.4917096
9.5896435 4.7794695 -1.5028473
6.9827538 4.7087722 -1.469833
4.6373968 2.304497 -1.4719677
5.3942652 3.6396382 -1.4823817
3.7757089 1.8726723 -1.4375528
3.010344 2.040458 -1.4493829
2.3650405 1.1643112 -1.375522
2.5525844 1.7335689 -1.4199815
2.0699971 1.0149658 -1.3615828
1.6759876 1.1476916 -1.3410288
1.6074181 0.78261387 -1.3252438
1.3237513 0.91344213 -1.3179492
1.2924196 0.62299889 -1.3104219
1.0643148 0.74096704 -1.3114032
1.0500222 0.50145459 -1.3044385
0.86037058 0.60432547 -1.2964755
0.88335925 0.41888547 -1.2834408
18.552267 12.496566 5.9592175
19.623934 9.7097301 5.0587854
18.505983 12.432576 4.2945638
19.588514 9.7007027 3.4175525
18.483942 12.399065 2.7128363
10.129021 5.0172939 1.0771071
18.437513 12.358591 1.5419043
9.7880516 4.848474 0.50775933
18.423222 12.339697 0.51400304
9.4208374 4.664618 0
18.390144 12.308238 -0.51296163
nan nan nan
18.324306 12.264155 -1.523985
10.000171 4.9448099 -1.0179639
10.678352 7.1456285 -1.4894004
9.5885105 4.7371979 -1.5000603
6.9684577 4.6638169 -1.46336
4.6410999 2.2861731 -1.4705919
5.4069371 3.6207867 -1.4823817
3.7737339 1.8553135 -1.4343004
3.0193715 2.0312333 -1.4503162
2.3710775 1.157016 -1.3766906
2.562377 1.7271849 -1.4220914
2.0638809 1.003058 -1.355154
1.6782688 1.1406653 -1.3396348
1.6137347 0.77872646 -1.3282591
1.3269317 0.9088158 -1.3179492
1.2912898 0.6169163 -1.3070049
1.07259 0.74120277 -1.3186086
1.0473253 0.49569753 -1.2987671
0.86121225 0.60043257 -1.2945082
0.8874988 0.41705042 -1.2874705
18.565657 12.41159 5.9495497
19.651146 9.6379538 5.0570946
18.534973 12.358369 4.2912488
19.617821 9.6300898 3.4167786
18.520912 12.330342 2.7119274
10.30733 5.0608492 1.0942342
18.457701 12.278959 1.5399956
9.504508 4.6668487 0.49215388
18.464102 12.27393 0.51394498
9.5627527 4.6933622 0
18.416342 12.232905 -0.51249743
8.0509176 3.9499962 -0.41657355
18.352461 12.190456 -1.5227765
9.3600693 4.5878634 -0.95096564
10.719777 7.1193042 -1.4917096
9.61166 4.7069635 -1.5011054
6.9272728 4.6012979 -1.4512769
4.6641731 2.277334 -1.4754068
5.4195433 3.6018908 -1.4823817
3.7759356 1.8400604 -1.4326742
3.0206597 2.0168135 -1.4475163
2.3711209 1.1468114 -1.3743533
2.5646245 1.7157063 -1.4199815
2.0693021 0.99677604 -1.3564398
1.6788026 1.1324744 -1.3368468
1.616443 0.77308875 -1.3282591
1.3285129 0.90309811 -1.3163439
1.3000395 0.61551696 -1.313839
1.070889 0.73450261 -1.3132045
1.0534974 0.49411193 -1.3044385
0.86077136 0.59565926 -1.2905736
0.88760561 0.41332909 -1.2854557
18.592766 12.336022 5.9443932
19.68248 9.5682354 5.056531
18.555481 12.278689 4.2860394
19.62022 9.5464258 3.4113638
18.536928 12.247829 2.7079892
9.8572044 4.7973189 1.044518
18.483803 12.20346 1.5386074
9.2737141 4.5134807 0.47934344
18.477627 12.190131 0.51313263
9.3250179 4.5364242 0
18.446409 12.16029 -0.51214921
8.0624104 3.9207771 -0.41645706
18.384495 12.119457 -1.5219133
9.3043613 4.5203643 -0.94367331
10.759075 7.0914116 -1.4937301
9.6146679 4.6669011 -1.4990152
6.9083471 4.5540385 -1.4439405
4.6699305 2.2599931 -1.4747189
5.4442854 3.5910063 -1.4857304
3.7865944 1.8289229 -1.4343004
3.0276811 2.0062573 -1.4475163
2.3771033 1.1394811 -1.375522
2.5743725 1.7092543 -1.4220914
2.0785763 0.99231172 -1.360297
1.6827455 1.1266075 -1.3368468
1.6155254 0.76573837 -1.3252438
1.3332441 0.89952999 -1.3179492
1.2988726 0.60943085 -1.3104219
1.074877 0.73173887 -1.3150059
1.0507604 0.48837379 -1.2987671
0.86538303 0.59440559 -1.2945082
0.88500595 0.40837997 -1.2794112
18.627645 12.265732 5.9418149
19.621401 9.4540205 5.0322938
18.596176 12.212497 4.2855654
18.917011 9.1228352 3.2833412
18.56089 12.170799 2.7052627
nan nan nan
18.513773 12.130664 1.5375663
9.1162024 4.397572 0.47037613
18.515886 12.122819 0.51301652
9.1651297 4.4191899 0
18.46574 12.080773 -0.51151097
