# .PCD v0.7 - Point Cloud Data file format
VERSION 0.7
FIELDS x y z
SIZE 4 4 4
TYPE F F F
COUNT 1 1 1
WIDTH 1534
HEIGHT 1
VIEWPOINT 0 0 0 1 0 0 0
POINTS 1534
DATA ascii
-0.92751998 -0.61729002 -1.2319
-0.93983001 -0.62761998 -1.2525001
-0.90196002 -0.62747997 -1.2523
-0.81123 -0.5837 -1.1648999
-0.80241001 -0.57928997 -1.1561
-0.85927999 -0.62304997 -1.2434
-0.80265999 -0.60895002 -1.2153
-0.78153998 -0.59476 -1.187
-0.79592001 -0.60811001 -1.2136
-0.82163 -0.63042998 -1.2581
-0.80603999 -0.62049001 -1.2383
-0.80346 -0.62988001 -1.2571
-0.79541999 -0.62573999 -1.2488
-0.76322001 -0.62492001 -1.2471
-0.94370002 -0.62681001 -1.2541
-0.93147999 -0.62077999 -1.242
-0.93984997 -0.62849998 -1.2575001
-0.84581 -0.60764998 -1.2158
-0.80711001 -0.58155 -1.1635
-0.82696998 -0.59812999 -1.1967
-0.83125001 -0.62976998 -1.26
-0.78354001 -0.59511 -1.1907001
-0.78096002 -0.59525001 -1.191
-0.80622 -0.61712998 -1.2347
-0.81298 -0.62467003 -1.2498
-0.81079 -0.62523001 -1.2509
-0.79711998 -0.62353998 -1.2474999
-0.78812999 -0.62321001 -1.2469
-0.76539999 -0.62313002 -1.2467
-0.76322001 -0.62365001 -1.2478
-0.76002002 -0.63046998 -1.2614
-0.94704002 -0.62779999 -1.2592
-0.93649 -0.62290001 -1.2493
-0.93763 -0.62577999 -1.2551
-0.89438999 -0.62184 -1.2472
-0.85838997 -0.61558002 -1.2347
-0.82748997 -0.59525001 -1.1939
-0.82227999 -0.59353 -1.1904
-0.78553998 -0.59548002 -1.1943001
-0.77797002 -0.59175998 -1.1869
-0.80770999 -0.61707002 -1.2376
-0.82536 -0.63313001 -1.2699
-0.79399002 -0.61080998 -1.2251
-0.78979999 -0.61646998 -1.2364
-0.79413998 -0.62917 -1.2618999
-0.76141 -0.63042003 -1.2644
-0.93365997 -0.61769998 -1.2419
-0.93147999 -0.61835003 -1.2431999
-0.83427 -0.59483999 -1.196
-0.82222998 -0.58820999 -1.1826
-0.8369 -0.60092002 -1.2082
-0.80066001 -0.6038 -1.214
-0.78803998 -0.59625 -1.1988
-0.79242998 -0.60180002 -1.21
-0.82460999 -0.62901002 -1.2647001
-0.82239002 -0.62957001 -1.2658
-0.79597002 -0.61115998 -1.2288001
-0.80931002 -0.63081002 -1.2683001
-0.79702997 -0.63028002 -1.2672
-0.76397002 -0.62658 -1.2598
-0.94927001 -0.62673002 -1.2634
-0.89977002 -0.59600002 -1.2015001
-0.90489 -0.60143 -1.2124
-0.86843002 -0.61816001 -1.2460999
-0.80598998 -0.57523 -1.1596
-0.80241001 -0.57464999 -1.1584001
-0.79303998 -0.59884 -1.2072001
-0.78595001 -0.59552997 -1.2005
-0.80970001 -0.61611003 -1.242
-0.82190001 -0.62786001 -1.2657
-0.80930001 -0.62031001 -1.2505
-0.79565001 -0.61861998 -1.2471
-0.78109002 -0.62067002 -1.2512
-0.87528998 -0.57849997 -1.1693
-0.85329002 -0.56581998 -1.1437
-0.88261998 -0.62702 -1.2674
-0.81331998 -0.57928997 -1.1709
-0.80607003 -0.57606 -1.1644
-0.79604 -0.59986001 -1.2125
-0.78046 -0.59002 -1.1926
-0.80622 -0.61210001 -1.2372
-0.82239002 -0.62690002 -1.2671
-0.80831999 -0.6182 -1.2496001
-0.78637999 -0.60993999 -1.2329
-0.78891999 -0.62805003 -1.2695
-0.76805001 -0.62496001 -1.2632
-0.88809001 -0.58577001 -1.187
-0.91487998 -0.60552001 -1.2271
-0.90034997 -0.61870998 -1.2538
-0.89600003 -0.61783999 -1.252
-0.88168001 -0.62287003 -1.2622
-0.80116999 -0.56737 -1.1497999
-0.79917997 -0.56792003 -1.1509
-0.78204 -0.58789003 -1.1913
-0.77996999 -0.58841997 -1.1924
-0.82709002 -0.62695998 -1.2704999
-0.82486999 -0.62752998 -1.2717
-0.78860003 -0.62884998 -1.2743
-0.77925003 -0.62353998 -1.2636
-0.77704 -0.62406999 -1.2646
-0.93593001 -0.61612999 -1.2517999
-0.89600998 -0.59179002 -1.2023
-0.92822999 -0.61521 -1.2499
-0.90249997 -0.61892998 -1.2574
-0.88793999 -0.61097997 -1.2413
-0.80905002 -0.57185 -1.1618
-0.79917997 -0.56674999 -1.1514
-0.86720002 -0.61774999 -1.255
-0.80304003 -0.60275 -1.2246
-0.78245997 -0.58912998 -1.1969
-0.80870998 -0.61150002 -1.2423
-0.82685 -0.62777001 -1.2754
-0.80831999 -0.61566001 -1.2508
-0.79369998 -0.61321998 -1.2458
-0.90100998 -0.59390998 -1.2096
-0.90609998 -0.59930003 -1.2206
-0.81010002 -0.57146001 -1.1639
-0.80075002 -0.56674999 -1.1543
-0.86928999 -0.61802 -1.2587
-0.80904001 -0.60613 -1.2345001
-0.78595001 -0.59062999 -1.2029001
-0.79727 -0.60149002 -1.225
-0.82560003 -0.62785 -1.2787
-0.90978998 -0.59649998 -1.2179
-0.90156001 -0.59310001 -1.2108999
-0.79736 -0.55931002 -1.1418999
-0.79539001 -0.55984998 -1.143
-0.78303999 -0.58512002 -1.1946
-0.78096002 -0.58565003 -1.1957
-0.80287999 -0.60901999 -1.2434
-0.93041998 -0.61091 -1.2503999
-0.92878997 -0.61190999 -1.2524
-0.93874002 -0.62059999 -1.2702
-0.89170003 -0.60993999 -1.2484
-0.89810002 -0.61646998 -1.2618001
-0.83108997 -0.58206999 -1.1914001
-0.80431998 -0.56507999 -1.1566
-0.84842998 -0.59851998 -1.225
-0.80853999 -0.60334003 -1.2349
-0.77897 -0.58296001 -1.1932
-0.80571997 -0.60557002 -1.2395
-0.79528999 -0.60413998 -1.2365
-0.79076999 -0.60727 -1.2429
-0.94373 -0.62054002 -1.2732
-0.93764001 -0.61862999 -1.2693
-0.90675002 -0.61905998 -1.2702
-0.89489001 -0.61302 -1.2578
-0.83477998 -0.58350998 -1.1973
-0.80800003 -0.56655997 -1.1625
-0.85105002 -0.59919 -1.2294
-0.82753998 -0.61655003 -1.2651
-0.78693998 -0.58787 -1.2062
-0.78285998 -0.58687001 -1.2042
-0.79579002 -0.60330999 -1.2379
-0.91487998 -0.59819001 -1.2307
-0.91273999 -0.59881997 -1.2319
-0.91004002 -0.61785001 -1.2711
-0.90728998 -0.61809999 -1.2716
-0.79986 -0.55571997 -1.1433001
-0.79789001 -0.55624998 -1.1444
-0.78204 -0.58078003 -1.1948
-0.77996999 -0.58130002 -1.1959
-0.92546999 -0.60585999 -1.2498
-0.92329001 -0.60649002 -1.2510999
-0.84794998 -0.58819997 -1.2134
-0.80263001 -0.55836999 -1.1519001
-0.85687 -0.59862 -1.2349
-0.81253999 -0.60255003 -1.243
-0.78046 -0.58039999 -1.1973
-0.79528999 -0.59378999 -1.2249
-0.80711001 -0.60943002 -1.2572
-0.7859 -0.59961998 -1.2369
-0.93431997 -0.61045998 -1.2624
-0.90011001 -0.59004003 -1.2201999
-0.93983001 -0.61826998 -1.2786
-0.86756003 -0.59039998 -1.2209001
-0.86062998 -0.5959 -1.2323
-0.81580001 -0.56651002 -1.1715
-0.85319 -0.59482998 -1.2301
-0.83653998 -0.61944002 -1.281
-0.77897 -0.57811999 -1.1955
-0.77689999 -0.57862997 -1.1966
-0.91661 -0.59767997 -1.239
-0.91446 -0.59829998 -1.2403001
-0.90406001 -0.61211002 -1.2689
-0.80659997 -0.55509001 -1.1507
-0.80197001 -0.55378002 -1.148
-0.88326001 -0.61265999 -1.27
-0.77854002 -0.57458001 -1.1911
-0.77648002 -0.57508999 -1.1921999
-0.79725999 -0.59944999 -1.2427
-0.81224 -0.61773002 -1.2805001
-0.94428003 -0.61444002 -1.2771
-0.89955002 -0.58723998 -1.2206
-0.89908999 -0.58893001 -1.2241
-0.86807001 -0.59653997 -1.2399
-0.81783003 -0.56362998 -1.1715
-0.83056003 -0.57449001 -1.1941
-0.82154 -0.60562003 -1.2588
-0.78794003 -0.58249003 -1.2107
-0.78634 -0.58339 -1.2126
-0.78872001 -0.59377998 -1.2342
-0.78346002 -0.59406 -1.2348
-0.89624 -0.58377999 -1.2167
-0.84349 -0.55115002 -1.1487
-0.87866998 -0.60255003 -1.2558
-0.84372002 -0.58037001 -1.2096
-0.82950997 -0.57248002 -1.1932
-0.77846998 -0.57407999 -1.1964999
-0.77640003 -0.57459003 -1.1976
-0.79069 -0.59397 -1.238
-0.77467 -0.58595002 -1.2212
-0.86092001 -0.55953002 -1.1691999
-0.85890001 -0.56010002 -1.1704
-0.90406001 -0.60816997 -1.2708
-0.90184999 -0.60877001 -1.2721
-0.87340999 -0.59559 -1.2445
-0.83626997 -0.57201999 -1.1952
-0.83420998 -0.57257003 -1.1964
-0.78854001 -0.57836002 -1.2085
-0.78096002 -0.57476002 -1.201
-0.80721003 -0.59662998 -1.2467
-0.80735999 -0.60997999 -1.2746
-0.91114998 -0.59105998 -1.2381999
-0.85890001 -0.55895001 -1.1709
-0.89038002 -0.58148003 -1.2181
-0.91426998 -0.61382002 -1.2858
-0.90507001 -0.60970002 -1.2772
-0.89945 -0.61224997 -1.2826
-0.81667 -0.55732 -1.1675
-0.80725998 -0.55273998 -1.1579
-0.83104002 -0.60887003 -1.2755001
-0.78444999 -0.57618999 -1.207
-0.77889001 -0.57409 -1.2026
-0.82735002 -0.61277002 -1.2837
-0.80541003 -0.60276997 -1.2627
-0.78364003 -0.58828002 -1.2323999
-0.78297001 -0.58991998 -1.2358
-0.87541997 -0.56856 -1.1941
-0.8459 -0.55118001 -1.1576
-0.82990998 -0.56528002 -1.1872
-0.81413001 -0.55633998 -1.1684
-0.77746999 -0.56977999 -1.1966
-0.77490997 -0.56992 -1.1969
-0.82981998 -0.61337 -1.2882
-0.89634001 -0.58099002 -1.2233
-0.89421999 -0.58159 -1.2244999
-0.90381002 -0.61056 -1.2855999
-0.80910999 -0.54793 -1.1537
-0.80712998 -0.54846001 -1.1548001
-0.79154003 -0.57700002 -1.2149
-0.77746999 -0.5686 -1.1971999
-0.80175 -0.58884001 -1.2398
-0.80834001 -0.60694999 -1.278
-0.92496002 -0.59837002 -1.2631
-0.86840999 -0.56356001 -1.1896
-0.88661999 -0.57739002 -1.2187999
-0.88738 -0.59399003 -1.2538
-0.90711999 -0.60942 -1.2864
-0.90487999 -0.61001998 -1.2877001
-0.83301997 -0.56310999 -1.1887
-0.80395001 -0.54514998 -1.1507
-0.87331003 -0.59473997 -1.2553999
-0.84303999 -0.61399001 -1.2961
-0.78096002 -0.57002002 -1.2032
-0.77739 -0.56941003 -1.202
-0.81645 -0.60078001 -1.2682
-0.81129998 -0.60351002 -1.2739
-0.81389999 -0.61220998 -1.2923
-0.86128002 -0.55774999 -1.1803
-0.83569998 -0.54294002 -1.149
-0.90819001 -0.60887003 -1.2885
-0.90595001 -0.60947001 -1.2898
-0.83301997 -0.56194001 -1.1892
-0.80712998 -0.54619002 -1.1559
-0.87383997 -0.59385997 -1.2568001
-0.78046 -0.56845999 -1.2029999
-0.77341998 -0.56525999 -1.1963
-0.81892002 -0.60139 -1.2727
-0.84864998 -0.54839998 -1.1635
-0.84665 -0.54895002 -1.1647
-0.90083998 -0.59849 -1.2697999
-0.89863998 -0.59908003 -1.2711
-0.85154003 -0.56941003 -1.2081
-0.80576003 -0.54039001 -1.1465
-0.80379999 -0.54091001 -1.1476001
-0.82304001 -0.59667999 -1.2659
-0.77947003 -0.56654 -1.202
-0.77889001 -0.56816 -1.2054
-0.77792001 -0.57574999 -1.2215
-0.77581 -0.57625002 -1.2226
-0.78004003 -0.58160001 -1.2339
-0.90191001 -0.58174998 -1.2374001
-0.84665 -0.54781997 -1.1652
-0.88779002 -0.57652998 -1.2263
-0.90720999 -0.60359001 -1.2839
-0.84192002 -0.56176001 -1.1949
-0.80628997 -0.53963 -1.1478
-0.80379999 -0.53978997 -1.1482
-0.85746998 -0.57819998 -1.2299
-0.79641998 -0.57791001 -1.2292
-0.77789003 -0.56624001 -1.2043999
-0.81199002 -0.59372997 -1.2629
-0.80934 -0.59828001 -1.2726001
-0.80027997 -0.59799999 -1.272
-0.86527002 -0.55870003 -1.1914999
-0.82880998 -0.53685999 -1.145
-0.88953 -0.59043998 -1.2593
-0.83069998 -0.55299002 -1.1794
-0.80789 -0.53952998 -1.1507
-0.80539 -0.53969002 -1.151
-0.85535002 -0.57550001 -1.2273999
-0.80040002 -0.57959002 -1.2361
-0.77739 -0.56463999 -1.2042
-0.80654001 -0.58837003 -1.2548
-0.78276998 -0.58333999 -1.2441
-0.86855 -0.55958998 -1.1967
-0.86649001 -0.56015998 -1.1979001
-0.81182998 -0.53728002 -1.149
-0.80505002 -0.53457999 -1.1432
-0.80309999 -0.53511 -1.1443
-0.89839 -0.60128999 -1.2859
-0.83704001 -0.6031 -1.2897
-0.77846998 -0.56215 -1.2022001
-0.77640003 -0.56265002 -1.2032
-0.78491998 -0.58153999 -1.2436
-0.79054999 -0.58797002 -1.2574
-0.91017002 -0.58528 -1.2549
-0.86649001 -0.55896997 -1.1984
-0.89493001 -0.57938999 -1.2422
-0.87291998 -0.57682002 -1.2367001
-0.80772001 -0.53523999 -1.1476001
-0.80309999 -0.53397 -1.1449
-0.84153003 -0.56169999 -1.2043
-0.80239999 -0.57854998 -1.2404
-0.77590001 -0.56108999 -1.2029999
-0.81098998 -0.58912998 -1.2631
-0.81278002 -0.59696001 -1.2799
-0.78325999 -0.58117998 -1.2460999
-0.80146998 -0.59720999 -1.2804
-0.88124001 -0.56733 -1.2194999
-0.84536999 -0.54597002 -1.1736
-0.92220998 -0.60837001 -1.3077
-0.80772001 -0.5341 -1.1481
-0.80203003 -0.53213 -1.1438
-0.83674002 -0.55729997 -1.198
-0.81037003 -0.58317 -1.2536
-0.78087002 -0.56357002 -1.2114
-0.79316002 -0.57468998 -1.2352999
-0.78131002 -0.57848001 -1.2435
-0.78983003 -0.58710003 -1.262
-0.85119998 -0.54668999 -1.1783
-0.84917998 -0.54724002 -1.1795
-0.80808002 -0.53134 -1.1452
-0.80558997 -0.53151 -1.1456
-0.84732997 -0.56123 -1.2096
-0.84754002 -0.60688001 -1.308
-0.77897 -0.5589 -1.2046
-0.77689999 -0.55940998 -1.2057
-0.78491998 -0.57779998 -1.2454
-0.78957999 -0.58345997 -1.2575001
-0.81019002 -0.60127002 -1.2959
-0.90635997 -0.58100998 -1.2556
-0.85571998 -0.55026001 -1.1892
-0.8955 -0.57796001 -1.249
-0.87720001 -0.57590002 -1.2446001
-0.81787997 -0.53850001 -1.1638
-0.82761002 -0.54684001 -1.1818
-0.91008002 -0.60394001 -1.3052
-0.80937999 -0.57988 -1.2532001
-0.77739 -0.55852997 -1.2071
-0.80901003 -0.58383 -1.2617
-0.80689001 -0.58868998 -1.2722
-0.78052998 -0.57323003 -1.2388
-0.78860998 -0.58143002 -1.2566
-0.79710001 -0.59002 -1.2751
-0.81230003 -0.60377002 -1.3048
-0.87532997 -0.56172001 -1.2171
-0.83955997 -0.54047 -1.1711
-0.9386 -0.61093003 -1.3238
-0.92061001 -0.60330999 -1.3073
-0.85207999 -0.56 -1.2134
-0.82867998 -0.54636002 -1.1839
-0.82283998 -0.58842999 -1.275
-0.78136998 -0.56023002 -1.2139
-0.78969002 -0.56836998 -1.2316
-0.82751 -0.60273999 -1.306
-0.77419001 -0.56722999 -1.2291
-0.78666002 -0.57871002 -1.2539999
-0.79613 -0.58801001 -1.2740999
-0.80891001 -0.59988999 -1.2999001
-0.94458997 -0.60301 -1.3101
-0.89166999 -0.57102001 -1.2406
-0.90257001 -0.58002001 -1.2601
-0.91696 -0.59753001 -1.2981
-0.82683003 -0.54022998 -1.1737
-0.82481998 -0.54075998 -1.1748
-0.77598 -0.55308002 -1.2016
-0.77392 -0.55357999 -1.2027
-0.77743 -0.56427997 -1.2259001
-0.79272997 -0.57986999 -1.2598
-0.79104 -0.58073997 -1.2617
-0.79710001 -0.58747 -1.2763
-0.92760998 -0.59289002 -1.2914
-0.87866998 -0.56336999 -1.2271
-0.90635002 -0.58322001 -1.2704
-0.92663002 -0.60258001 -1.3125
-0.85737997 -0.55914998 -1.2179
-0.80505002 -0.52654999 -1.1469001
-0.86277997 -0.56660998 -1.2342
-0.81287003 -0.57866001 -1.2604001
-0.77341998 -0.55202001 -1.2024
-0.79711998 -0.57135999 -1.2445
-0.80786997 -0.58560997 -1.2756
-0.7859 -0.57353002 -1.2493
-0.79931003 -0.58569002 -1.2758
-0.80097997 -0.58911997 -1.2832
-0.80070001 -0.59109998 -1.2875
-0.81099999 -0.60110998 -1.3092999
-0.84987998 -0.54363 -1.1872
-0.86193001 -0.55326998 -1.2083
-0.84612 -0.55056 -1.2024
-0.80238003 -0.52366 -1.1436
-0.82388002 -0.53966999 -1.1786
-0.83231002 -0.59148997 -1.2917
-0.77838999 -0.55444998 -1.2108001
-0.7773 -0.55567002 -1.2135
-0.81818002 -0.59196001 -1.2927999
-0.77776998 -0.56417 -1.2321
-0.77662998 -0.56538999 -1.2347
-0.81146997 -0.59353 -1.2962
-0.80291998 -0.58930999 -1.2869999
-0.80070001 -0.58982998 -1.2881
-0.80906999 -0.59836 -1.3067
-0.94450003 -0.60110998 -1.3163
-0.85314 -0.54452002 -1.1923
-0.92259997 -0.59116 -1.2945
-0.93927997 -0.60399002 -1.3226
-0.93698001 -0.60460001 -1.3239
-0.81002998 -0.52393001 -1.1473
-0.80164999 -0.52024001 -1.1392
-0.79970998 -0.52074999 -1.1403
-0.77447999 -0.54841 -1.2009
-0.77241999 -0.54890001 -1.2019
-0.77743 -0.56062001 -1.2276
-0.77531999 -0.56111002 -1.2287
-0.80438 -0.5891 -1.29
-0.80215001 -0.58961999 -1.2911
-0.93624002 -0.59656 -1.3098
-0.84297001 -0.53863001 -1.1826
-0.91226 -0.58521003 -1.2849
-0.85408998 -0.55142999 -1.2107
-0.80700999 -0.52258003 -1.1474
-0.80452001 -0.52275002 -1.1477
-0.83880001 -0.54711002 -1.2012
-0.81835002 -0.57881999 -1.2708
-0.77640003 -0.55056 -1.2088
-0.78918999 -0.56185001 -1.2336
-0.8064 -0.58068001 -1.2749
-0.77385002 -0.55878001 -1.2269
-0.80004001 -0.58025998 -1.274
-0.82653999 -0.60213 -1.322
-0.80940002 -0.59375 -1.3036
-0.80666 -0.59390002 -1.304
-0.92313999 -0.58889002 -1.2964
-0.88578999 -0.56686002 -1.2479
-0.90142 -0.57893002 -1.2745
-0.88793999 -0.57217997 -1.2596999
-0.80808002 -0.52212 -1.1494
-0.82269001 -0.53346997 -1.1744
-0.82068002 -0.53399003 -1.1756001
-0.78087002 -0.55256999 -1.2165
-0.77433002 -0.54983002 -1.2104
-0.81523001 -0.58587998 -1.2898
-0.77581 -0.55897999 -1.2306
-0.7859 -0.56849998 -1.2515
-0.80650002 -0.59026003 -1.2995
-0.79413998 -0.58315998 -1.2838
0.83322001 -0.61232001 -1.348
-0.92592001 -0.58732003 -1.2965
-0.89280999 -0.56814998 -1.2541
-0.86795998 -0.55413997 -1.2232
-0.86585999 -0.55469 -1.2244
-0.83420998 -0.53609997 -1.1834
-0.81344002 -0.52443999 -1.1576999
-0.82749999 -0.53542 -1.1819
-0.91341001 -0.59355998 -1.3102
-0.85303998 -0.59895003 -1.3221
-0.77398002 -0.54439998 -1.2017
-0.77192998 -0.54488999 -1.2028
-0.83824998 -0.59483999 -1.3131
-0.83025998 -0.59338999 -1.3099
-0.77433997 -0.55666 -1.2288001
-0.79247999 -0.57846999 -1.2769001
-0.79027998 -0.57897002 -1.278
-0.93506002 -0.59389001 -1.3145
-0.89929998 -0.57301003 -1.2683001
-0.85777998 -0.54825997 -1.2135
-0.83045 -0.53249002 -1.1786
-0.81932998 -0.52710998 -1.1667
-0.82214999 -0.53075999 -1.1747
-0.89262003 -0.57866001 -1.2808
-0.90688998 -0.59004003 -1.306
-0.83032 -0.58353001 -1.2915
-0.78038001 -0.54975998 -1.2168
-0.78026998 -0.55168003 -1.221
-0.79363 -0.5675 -1.256
-0.77385002 -0.55506998 -1.2285
-0.79808998 -0.57495999 -1.2726001
-0.80281001 -0.58706999 -1.2994
-0.80057001 -0.58757001 -1.3005
-0.93559998 -0.59292001 -1.3158
-0.91064 -0.579 -1.2849
-0.82868999 -0.52836001 -1.1726
-0.81379002 -0.52056998 -1.1553
-0.81182998 -0.52108002 -1.1564
-0.80985999 -0.52158999 -1.1575
-0.87184 -0.56382 -1.2512
-0.87765998 -0.56959999 -1.2641
-0.85075003 -0.59684002 -1.3245
-0.77241999 -0.54284 -1.2047
-0.77284002 -0.54510999 -1.2097
-0.84404999 -0.60078001 -1.3333
-0.79755998 -0.56910002 -1.263
-0.79418999 -0.57081997 -1.2668
-0.80040002 -0.58397001 -1.296
-0.79383999 -0.58122998 -1.2898999
-0.90092999 -0.56954998 -1.2673
-0.81608999 -0.51735002 -1.1512001
-0.80712998 -0.51337999 -1.1423
-0.80734003 -0.51526999 -1.1466
-0.91257 -0.58499002 -1.3017
-0.91031998 -0.58556998 -1.303
-0.89262003 -0.57609999 -1.2819
-0.77398002 -0.54079998 -1.2034
-0.77192998 -0.54127997 -1.2043999
-0.83379 -0.58769 -1.3077
-0.81498998 -0.57840002 -1.2869999
-0.79751003 -0.58051997 -1.2917
-0.79335999 -0.57958001 -1.2897
-0.86364001 -0.54649001 -1.2193
-0.80659997 -0.51188999 -1.1421
-0.80572999 -0.51308 -1.1447999
-0.86756003 -0.55467999 -1.2376
-0.91008002 -0.58819997 -1.3124
-0.83181 -0.58072001 -1.2957
-0.78087002 -0.54645997 -1.2192
-0.77879 -0.54694998 -1.2203
-0.84140998 -0.59402001 -1.3253
-0.77792001 -0.55232 -1.2323
-0.80834001 -0.57863998 -1.291
-0.79288 -0.57792997 -1.2894
-0.79066002 -0.57843 -1.2905
-0.88309002 -0.55763 -1.2474999
-0.80928999 -0.51247001 -1.1464
-0.80627 -0.51227999 -1.146
-0.82630002 -0.52691001 -1.1788
-0.85374999 -0.59499002 -1.3311
-0.77490997 -0.54099 -1.2103
-0.77086002 -0.54005998 -1.2082
-0.84586 -0.59588999 -1.3331
-0.84454 -0.59713 -1.3358999
-0.77890003 -0.55180001 -1.2344
-0.79857999 -0.57023001 -1.2757
-0.79335999 -0.57700002 -1.2908
-0.78970999 -0.57642001 -1.2895
-0.81285 -0.51183999 -1.1481
-0.80874997 -0.51098001 -1.1461999
-0.80896002 -0.51284999 -1.1504
-0.93400002 -0.59483999 -1.3343
-0.92087001 -0.59051001 -1.3246
-0.91858 -0.59109002 -1.3259
-0.85803998 -0.59452999 -1.3336
-0.78544998 -0.54530001 -1.2232
-0.77590001 -0.54048997 -1.2124
-0.80356002 -0.56219 -1.2611001
-0.84091997 -0.59101999 -1.3257
-0.81055999 -0.57134998 -1.2816
-0.79479998 -0.57678002 -1.2938
-0.78874999 -0.57441998 -1.2885
-0.91387999 -0.57462001 -1.2924
-0.81791002 -0.51564997 -1.1598001
-0.81057 -0.51273 -1.1532
-0.87452 -0.55543 -1.2493
-0.91061002 -0.58460999 -1.3149
-0.90834999 -0.58517998 -1.3162
-0.84726 -0.58775002 -1.322
-0.77392 -0.53786999 -1.2098
-0.77135998 -0.53799999 -1.21
-0.83598 -0.58616 -1.3184
-0.83420002 -0.58704001 -1.3204
-0.81566 -0.58008999 -1.3047
-0.79832 -0.58025998 -1.3051
-0.79273999 -0.57826 -1.3006001
-0.83837998 -0.52746999 -1.1896
-0.81326002 -0.51328999 -1.1576
-0.85361999 -0.54083002 -1.2197
-0.90688998 -0.58089 -1.3099999
-0.84104002 -0.54021001 -1.2183
-0.77241999 -0.53560001 -1.2079
-0.76888001 -0.53503001 -1.2066
-0.83943999 -0.58731002 -1.3245
-0.84404999 -0.59276998 -1.3368
-0.81761003 -0.58020002 -1.3085001
-0.80694002 -0.58535999 -1.3200999
-0.79273999 -0.57696003 -1.3012
-0.79716003 -0.58244002 -1.3135999
-0.9436 -0.59078997 -1.3358999
-0.82437998 -0.51744002 -1.17
-0.82239002 -0.51796001 -1.1712
-0.93347001 -0.59052002 -1.3353
-0.91220999 -0.58304 -1.3184
-0.91683 -0.58806998 -1.3297
-0.78096002 -0.53851002 -1.2177
-0.80158001 -0.55703002 -1.2596
-0.82165003 -0.57336003 -1.2965
-0.78200001 -0.54711002 -1.2371
-0.79391998 -0.55971998 -1.2656
-0.80598003 -0.58336002 -1.3191
-0.79225999 -0.57533002 -1.3009
-0.80001003 -0.58328998 -1.3189
-0.88687998 -0.55574 -1.26
-0.82615 -0.51920003 -1.1770999
-0.91096002 -0.57490999 -1.3034
-0.90517002 -0.57924998 -1.3132
-0.84078002 -0.57929999 -1.3134
-0.80140001 -0.55770999 -1.2644
-0.80958003 -0.56558001 -1.2823
-0.82981002 -0.58644998 -1.3296
-0.80704999 -0.58506 -1.3264
-0.78764999 -0.57278001 -1.2986
-0.79869002 -0.58322001 -1.3221999
-0.94237 -0.58941001 -1.3399
-0.89063001 -0.55875999 -1.2703
-0.90666997 -0.57088 -1.2977999
-0.77341998 -0.53272998 -1.2111
-0.77086002 -0.53285003 -1.2114
-0.82511002 -0.57323998 -1.3032
-0.82730001 -0.57690001 -1.3115
-0.82981002 -0.58511001 -1.3302
-0.78811997 -0.57182002 -1.3
-0.78542 -0.57195997 -1.3003
-0.84108001 -0.52442998 -1.1955
-0.83904999 -0.52495003 -1.1967
-0.92543 -0.58143002 -1.3255
-0.90369999 -0.57363999 -1.3077
-0.90145999 -0.57420999 -1.309
-0.78645003 -0.53868997 -1.228
-0.77241999 -0.53079998 -1.21
-0.78324997 -0.54035002 -1.2318
-0.80831999 -0.56004 -1.2767
-0.80712998 -0.56537998 -1.2889
-0.78622001 -0.56909001 -1.2973
-0.78731 -0.57204998 -1.3041
-0.88041002 -0.54793 -1.2523
-0.81487 -0.50858998 -1.1624
-0.84772998 -0.53109002 -1.2139
-0.91259003 -0.58008999 -1.3257999
-0.90608001 -0.57793999 -1.3209
-0.84976 -0.58164001 -1.3293999
-0.78855997 -0.54487997 -1.2454
-0.80022001 -0.55513 -1.2688
-0.80476999 -0.58160001 -1.3293
-0.78636003 -0.57010001 -1.303
-0.79263002 -0.57694 -1.3186001
-0.93483001 -0.58077002 -1.3309
-0.81272 -0.50612998 -1.1598001
-0.81022 -0.50629997 -1.1602
-0.93063003 -0.58420998 -1.3387001
-0.89775002 -0.56932998 -1.3046
-0.83420998 -0.53049999 -1.2157
-0.76788998 -0.52722001 -1.2081
-0.81770003 -0.56421 -1.2929
-0.81746 -0.5661 -1.2972
-0.78779 -0.56990999 -1.306
-0.78271002 -0.56827998 -1.3022
-0.81252003 -0.50312001 -1.1561
-0.80627 -0.50092 -1.151
-0.90305001 -0.57138997 -1.313
-0.90131998 -0.57229 -1.3150001
-0.81336999 -0.55378002 -1.2725
-0.78473002 -0.53779 -1.2358
-0.80140001 -0.55145001 -1.2672
-0.78825998 -0.56893998 -1.3074
-0.78601998 -0.56941998 -1.3085001
-0.88257003 -0.54553002 -1.2571
-0.86330003 -0.53908998 -1.2422
-0.91736001 -0.57915998 -1.3346
-0.88177001 -0.55844003 -1.2868
-0.85275 -0.57973999 -1.3358999
-0.78100997 -0.53781998 -1.2393
-0.79881001 -0.55439001 -1.2775
-0.8096 -0.58337998 -1.3443
-0.79311001 -0.57335001 -1.3212
-0.79131001 -0.57418001 -1.3231
-0.94722003 -0.58438998 -1.3504
-0.86321998 -0.58560002 -1.3532
-0.78249002 -0.53759003 -1.2423
-0.77973002 -0.53956997 -1.2467999
-0.78744 -0.56778997 -1.312
-0.78188998 -0.56581998 -1.3075
-0.79795998 -0.57997 -1.3401999
-0.81898999 -0.50357002 -1.1669
-0.89696002 -0.55764002 -1.2922
-0.94005001 -0.58669001 -1.3595001
-0.93878001 -0.58793998 -1.3624001
-0.88291001 -0.55458999 -1.2851
-0.88071001 -0.55513 -1.2864
-0.81086999 -0.54813999 -1.2702
-0.79167002 -0.5388 -1.2486
-0.78953999 -0.53928 -1.2497
-0.79358 -0.57098001 -1.3231
-0.78283 -0.56516999 -1.3097
-0.79233003 -0.57438999 -1.331
-0.92729002 -0.56936997 -1.3229001
-0.81487 -0.50160003 -1.1655
-0.90540999 -0.56361997 -1.3096
-0.90502 -0.56932002 -1.3228
-0.90276003 -0.56987 -1.3241
-0.86221999 -0.58221 -1.3528
-0.78114998 -0.53223002 -1.2366
-0.79930001 -0.55087 -1.28
-0.79649001 -0.57402003 -1.3336999
-0.78200001 -0.56541997 -1.3138
-0.79799998 -0.57951999 -1.3465
-0.95207 -0.58337998 -1.3591
-0.86650997 -0.53799999 -1.2534
-0.89604002 -0.56234998 -1.3101
-0.83793998 -0.52736002 -1.2286
-0.77706999 -0.53013003 -1.235
-0.77447999 -0.53026003 -1.2352999
-0.78266001 -0.53794003 -1.2532001
-0.78434998 -0.56590003 -1.3184
-0.78443003 -0.56810999 -1.3235
-0.93698001 -0.57270998 -1.3380001
-0.80879003 -0.49893001 -1.1655999
-0.93844998 -0.58165997 -1.3589
-0.88283002 -0.55265999 -1.2912
-0.88062 -0.55320001 -1.2924
-0.80638999 -0.54131001 -1.2647001
-0.79018003 -0.53408003 -1.2478
-0.78806001 -0.53456002 -1.2489001
-0.84433001 -0.57990003 -1.3548
-0.78246999 -0.56316 -1.3157001
-0.78021997 -0.56362998 -1.3168
-0.88150001 -0.53912002 -1.2632
-0.83134001 -0.51349002 -1.2031
-0.93080997 -0.57749999 -1.3530999
-0.90661001 -0.56630999 -1.3269
-0.89485002 -0.56085998 -1.3141
-0.85623997 -0.57402998 -1.345
-0.77965999 -0.52745998 -1.2358
-0.80860001 -0.5535 -1.2969
-0.79843003 -0.57357001 -1.3439
-0.78021997 -0.56225997 -1.3174
-0.78683001 -0.56932002 -1.3339
-0.79477 -0.57744002 -1.3529
-0.93576998 -0.57119 -1.3421
-0.92708999 -0.57380998 -1.3482
-0.79294002 -0.54126 -1.2717
-0.78069001 -0.56127 -1.3188
-0.77657002 -0.56035 -1.3166
-0.78360999 -0.56774998 -1.334
-0.7906 -0.57516003 -1.3514
-0.81272 -0.49438 -1.1648999
-0.93878001 -0.57972002 -1.3660001
-0.89234 -0.55466002 -1.3069
-0.89011002 -0.55520999 -1.3082
-0.80089998 -0.53371 -1.2575001
-0.79280001 -0.56671 -1.3353
-0.78069001 -0.55993003 -1.3193001
-0.77842999 -0.56040001 -1.3204
-0.78267998 -0.56569999 -1.3329
-0.78828001 -0.57205999 -1.3479
-0.93199998 -0.56629997 -1.3377
-0.81772 -0.49807999 -1.1766
-0.86491001 -0.53255999 -1.2581
-0.91856998 -0.57189 -1.351
-0.91362 -0.57078999 -1.3484
-0.85973001 -0.57243001 -1.3522
-0.82084 -0.55817997 -1.3186001
-0.80453002 -0.57409 -1.3561
-0.78395998 -0.56112999 -1.3255
-0.77749997 -0.55848998 -1.3193001
-0.77570999 -0.55930001 -1.3212
-0.78456998 -0.56805003 -1.3419
-0.78596997 -0.57129002 -1.3494999
-0.81718999 -0.49667999 -1.1763
-0.93673003 -0.58001 -1.3736
-0.90802997 -0.56405002 -1.3358001
-0.83743 -0.52157998 -1.2352
-0.81642997 -0.55391997 -1.3118
-0.7877 -0.56268001 -1.3326
-0.77982998 -0.55901003 -1.3239
-0.77617002 -0.55844003 -1.3225
-0.78039998 -0.56373 -1.3351001
-0.78365999 -0.56832999 -1.346
-0.95349997 -0.57678002 -1.3699
-0.81022 -0.4912 -1.1667
-0.84470999 -0.51762003 -1.2294
-0.91013002 -0.56397998 -1.3395
-0.91047001 -0.56617999 -1.3448
-0.79293001 -0.52472001 -1.2463
-0.77938998 -0.52503002 -1.247
-0.79426003 -0.56608999 -1.3444999
-0.78403002 -0.56072998 -1.3318
-0.77802998 -0.55844003 -1.3264
-0.77947998 -0.56164998 -1.334
-0.88417 -0.53500998 -1.2746
-0.80432999 -0.49136001 -1.1706001
-0.89669001 -0.55024999 -1.311
-0.92014998 -0.56875998 -1.3551
-0.90205997 -0.55944002 -1.3328
-0.86122 -0.56932002 -1.3564
-0.83894002 -0.56664997 -1.35
-0.80830002 -0.57488 -1.3696001
-0.80221999 -0.57261997 -1.3642
-0.79198003 -0.56726998 -1.3515
-0.77715999 -0.55848002 -1.3305
-0.78920001 -0.56958002 -1.357
-0.95169002 -0.57476997 -1.3733
-0.88291001 -0.54039001 -1.2912
-0.83942997 -0.56559002 -1.3514
-0.80500001 -0.57543999 -1.3749
-0.77809 -0.55778998 -1.3328
-0.78043002 -0.56167001 -1.342
-0.87826997 -0.52881002 -1.2672
-0.88326001 -0.54306 -1.3013
-0.88103998 -0.54359001 -1.3026
-0.78495002 -0.51543999 -1.2351
-0.81229001 -0.54356998 -1.3025
-0.77715999 -0.55574 -1.3317
-0.77489001 -0.55619001 -1.3328
-0.8617 -0.51941001 -1.2478
-0.85588002 -0.52126998 -1.2523
-0.90942001 -0.56006002 -1.3455
-0.90869999 -0.56159002 -1.3492
-0.85574001 -0.56162 -1.3492
-0.84628999 -0.56765997 -1.3638
-0.79245001 -0.56576002 -1.3592
-0.77673 -0.55633998 -1.3365999
-0.78641999 -0.56567001 -1.359
-0.90657997 -0.54552001 -1.3139
-0.89943999 -0.55265999 -1.3311
-0.82327998 -0.50713998 -1.2214
-0.84726 -0.56711 -1.3659
-0.78043002 -0.55786997 -1.3436
-0.77490997 -0.55593997 -1.339
-0.80879003 -0.48504001 -1.1715
-0.86754 -0.52603 -1.2704999
-0.93883997 -0.57169002 -1.3808
-0.90889001 -0.55719 -1.3458
-0.83535999 -0.55558002 -1.3419
-0.78135002 -0.55721003 -1.3458
-0.77906001 -0.55765998 -1.3469
-0.92207998 -0.55219001 -1.3376
-0.82708001 -0.49656001 -1.2029001
-0.80289 -0.48523 -1.1754
-0.87014002 -0.52814001 -1.2794
-0.91759998 -0.56314999 -1.3642
-0.84328002 -0.54939002 -1.3309
-0.78285998 -0.51115 -1.2381999
-0.77498001 -0.5133 -1.2434
-0.85264999 -0.56799001 -1.3759
-0.79705 -0.56731999 -1.3743
-0.78182 -0.55830002 -1.3523999
-0.77859002 -0.55807 -1.3519
-0.83081001 -0.49759999 -1.2088
-0.83737999 -0.50682002 -1.2312
-0.78274 -0.55760998 -1.3546
-0.77170998 -0.55163997 -1.3401
-0.78496999 -0.5636 -1.3692
-0.72101998 -0.56575 -1.3744
-0.94095999 -0.56876999 -1.3857
-0.93858999 -0.56932998 -1.387
-0.91468 -0.55664003 -1.3561
-0.91236001 -0.55717999 -1.3573999
-0.85205001 -0.56274003 -1.3710001
-0.78596002 -0.55861002 -1.3609
-0.77583998 -0.55333 -1.3480999
-0.78315002 -0.56088001 -1.3664
-0.72589999 -0.56603003 -1.3789999
-0.90008003 -0.53684002 -1.3116
-0.84688997 -0.51012999 -1.2464
-0.87462997 -0.53258002 -1.3012
-0.90796 -0.55506003 -1.3561
-0.84876001 -0.54899001 -1.3413
-0.77889001 -0.50477999 -1.2333
-0.78527999 -0.51648003 -1.2618999
-0.78913999 -0.56173003 -1.3724999
-0.76942998 -0.54939002 -1.3423001
-0.77990001 -0.55927002 -1.3665
-0.92541999 -0.55848998 -1.3685
-0.93674999 -0.56739998 -1.3903
-0.89455003 -0.54348999 -1.3317
-0.89175999 -0.54369998 -1.3322001
-0.77537 -0.55239999 -1.3536
-0.76988 -0.55049002 -1.3489
-0.72632003 -0.56357998 -1.381
-0.85957003 -0.51524001 -1.2663
-0.90293002 -0.54724002 -1.3449
-0.77446002 -0.55031002 -1.3525
-0.77215999 -0.55075997 -1.3536
-0.73079997 -0.56343001 -1.3846999
-0.87607002 -0.52023 -1.2824
-0.79933 -0.47753 -1.1772
-0.88853002 -0.53325999 -1.3145
-0.92022002 -0.55638999 -1.3716
-0.91789001 -0.55693001 -1.3729
-0.84178001 -0.54025 -1.3318
-0.78285998 -0.50356001 -1.2413
-0.80884999 -0.52827001 -1.3022
-0.78680003 -0.55791998 -1.3753
-0.77215999 -0.54933 -1.3542
-0.7744 -0.55312997 -1.3635
-0.80129999 -0.47589999 -1.1765
-0.79246002 -0.47222 -1.1674
-0.86587 -0.51824999 -1.2812001
-0.89576 -0.53820997 -1.3305
-0.90608001 -0.54640001 -1.3508
-0.90377998 -0.54693002 -1.3521
-0.87817001 -0.56265998 -1.391
-0.77007002 -0.50116998 -1.239
-0.78173 -0.55500001 -1.372
-0.76757997 -0.54676002 -1.3516999
-0.77478999 -0.55422002 -1.3701
-0.92602003 -0.54747999 -1.3573
-0.79493999 -0.47093001 -1.1675
-0.79299003 -0.47139001 -1.1687
-0.93647999 -0.55958998 -1.3873
-0.93412 -0.56013 -1.3887
-0.89925998 -0.54092997 -1.3411
-0.89699 -0.54145002 -1.3424
-0.77797002 -0.49610999 -1.2299
-0.78764999 -0.55796999 -1.3832999
-0.76849002 -0.54609001 -1.3539
-0.77072001 -0.54987001 -1.3631999
-0.71806997 -0.54907 -1.3612
-0.87124997 -0.51538002 -1.2812999
-0.79299003 -0.47025999 -1.1691
-0.86111999 -0.51288998 -1.2751
-0.92939001 -0.55593002 -1.3821
-0.91602999 -0.54979998 -1.3669
-0.86928999 -0.52328998 -1.3009
-0.83429998 -0.53148001 -1.3213
-0.77938002 -0.49763 -1.2372
-0.81375998 -0.52767998 -1.3119
-0.78257 -0.55509001 -1.38
-0.76709998 -0.54588997 -1.3571
-0.77020001 -0.55032003 -1.3681
-0.71806997 -0.54775 -1.3618
-0.94703001 -0.55928999 -1.3943
-0.79351997 -0.46945 -1.1704
-0.7942 -0.47148001 -1.1754
-0.93202001 -0.55618 -1.3866
-0.93123001 -0.55768001 -1.3903
-0.92729002 -0.55726999 -1.3893
-0.88067001 -0.56020999 -1.3966
-0.78969997 -0.51051998 -1.2728
-0.77025998 -0.54689997 -1.3634
-0.76705003 -0.54667002 -1.3629
-0.76743001 -0.54909998 -1.3688999
-0.90888 -0.53522998 -1.3382
-0.82213002 -0.48704001 -1.2177
-0.92308003 -0.54944003 -1.3737
-0.90711999 -0.54175001 -1.3545001
-0.90482002 -0.54227 -1.3558
-0.77206999 -0.54686999 -1.3673
-0.76840001 -0.54631001 -1.3659
-0.76652998 -0.54707998 -1.3678
-0.71824998 -0.54299998 -1.3576
-0.95020998 -0.55839002 -1.4002
-0.87595999 -0.51617002 -1.2943
-0.80368 -0.47479999 -1.1906
-0.83794999 -0.49700999 -1.2462
-0.85628998 -0.50979 -1.2783
-0.85413998 -0.51028001 -1.2795
-0.88271999 -0.52942002 -1.3275
-0.83679998 -0.52916998 -1.3269
-0.83045 -0.53477001 -1.3408999
-0.78384 -0.55409002 -1.3894
-0.77291 -0.54825002 -1.3747
-0.76517999 -0.54471999 -1.3659
-0.76240999 -0.54482001 -1.3661
-0.76857001 -0.55154997 -1.383
-0.73550999 -0.55295998 -1.3866
-0.93197 -0.54812998 -1.3784
-0.80316001 -0.47330001 -1.1903
-0.80063999 -0.47343999 -1.1906
-0.79917997 -0.47420999 -1.1925
-0.84055001 -0.50081003 -1.2594
-0.83842999 -0.50129002 -1.2606
-0.87967002 -0.55539 -1.3967
-0.81474 -0.52313 -1.3156
-0.77460998 -0.55028999 -1.3839
-0.76107001 -0.54246002 -1.3642
-0.75919998 -0.54321998 -1.3661
-0.73422998 -0.55058002 -1.3846
-0.80144 -0.46946999 -1.1841
-0.79631001 -0.46803999 -1.1805
-0.83585 -0.49326 -1.2441
-0.83376002 -0.49373999 -1.2453001
-0.87190002 -0.51841003 -1.3075
-0.78889 -0.50307 -1.2688
-0.78609997 -0.55295998 -1.3946
-0.77731001 -0.55088001 -1.3894
-0.76375002 -0.54307997 -1.3697
-0.76231998 -0.54416001 -1.3724999
-0.76621997 -0.54921001 -1.3852
-0.73743999 -0.54944998 -1.3858
-0.93778998 -0.54881001 -1.3882
-0.83951998 -0.49248001 -1.2457
-0.84108001 -0.49860001 -1.2612
-0.90200001 -0.53705001 -1.3585
-0.83231002 -0.52231997 -1.3212
-0.83486998 -0.53363001 -1.3498
-0.77583998 -0.55058002 -1.3927
-0.76589 -0.54541999 -1.3796999
-0.76043999 -0.54355001 -1.3749
-0.76297998 -0.54759997 -1.3852
-0.73743999 -0.54806 -1.3863
-0.84478998 -0.49434999 -1.2541
-0.78987002 -0.46669999 -1.184
-0.86918002 -0.51596999 -1.309
-0.92515999 -0.55155998 -1.3993
-0.87119001 -0.54579997 -1.3846
-0.83192003 -0.53037 -1.3455
-0.76043999 -0.54216999 -1.3755
-0.75765997 -0.54227 -1.3757
-0.73572999 -0.54535002 -1.3835
-0.81494999 -0.48054001 -1.2225
-0.85874999 -0.50847 -1.2936
-0.88753998 -0.55283999 -1.4065
-0.81203997 -0.51427001 -1.3084
-0.78675002 -0.55362999 -1.4085
-0.76533002 -0.54444999 -1.3851
-0.75854999 -0.54159999 -1.3779
-0.75797999 -0.54334003 -1.3823
-0.73935997 -0.54460001 -1.3855
-0.87641001 -0.51055998 -1.3025
-0.79101998 -0.46675 -1.1908
-0.88306999 -0.52363002 -1.3358999
-0.82782 -0.51561999 -1.3155
-0.85942 -0.54558998 -1.3918999
-0.75708997 -0.54136002 -1.3811001
-0.67771 -0.54626 -1.3936
-0.95017999 -0.55254 -1.4139
-0.86748999 -0.51292998 -1.3125
-0.86071998 -0.53509998 -1.3693
-0.85794002 -0.54321998 -1.3901
-0.75519001 -0.54070002 -1.3836
-0.67732 -0.54449999 -1.3933001
-0.85057998 -0.49274001 -1.2648
-0.78046 -0.45640999 -1.1715
-0.88654 -0.54795003 -1.4065
-0.77648002 -0.48047999 -1.2333
-0.84946001 -0.53432 -1.3715
-0.78017002 -0.54892999 -1.409
-0.67967999 -0.54503 -1.399
-0.95229 -0.55089998 -1.4182
-0.85582 -0.49630001 -1.2776
-0.85658002 -0.50376999 -1.2969
-0.82731998 -0.51130003 -1.3162
-0.77165997 -0.48320001 -1.2438999
-0.86431998 -0.54451001 -1.4017
-0.77538002 -0.54842001 -1.4118
-0.76946002 -0.54624999 -1.4062001
-0.72342998 -0.52696002 -1.3566
-0.67653 -0.54101002 -1.3927
-0.89103001 -0.51567 -1.3312
-0.80097997 -0.46952 -1.2121
-0.85026002 -0.52445 -1.3539
-0.86382997 -0.54285997 -1.4014
-0.77652001 -0.55010003 -1.4201
-0.76927 -0.54696 -1.4119999
-0.72127998 -0.52403998 -1.3528
-0.67141002 -0.53536999 -1.3821
-0.94808 -0.54563999 -1.4129
-0.79696 -0.45943001 -1.1897
-0.93035001 -0.54491001 -1.411
-0.88554001 -0.54316998 -1.4065
-0.85636002 -0.53465998 -1.3845
-0.77082002 -0.54883999 -1.4212
-0.76229 -0.54471999 -1.4105
-0.67653 -0.53825003 -1.3938
-0.91362 -0.52601999 -1.3665
-0.79289001 -0.45738 -1.1881
-0.82072997 -0.47863999 -1.2434
-0.81985003 -0.50261003 -1.3056
-0.77609003 -0.48221001 -1.2527
-0.76817 -0.54978001 -1.4282
-0.75836998 -0.54470003 -1.415
-0.72529 -0.52210999 -1.3563
-0.67377001 -0.53444999 -1.3882999
-0.80022001 -0.46039999 -1.1998
-0.83280998 -0.50931001 -1.3272001
-0.76859999 -0.54860002 -1.4296
-0.76574999 -0.54869002 -1.4298
-0.72529 -0.52068001 -1.3568
-0.67888999 -0.53727001 -1.4001
-0.68475997 -0.54455 -1.419
-0.94147998 -0.53925002 -1.4097
-0.79394001 -0.45548001 -1.1907001
-0.78151 -0.44983 -1.1759
-0.77851999 -0.44964001 -1.1754
-0.86697 -0.50318998 -1.3154
-0.88404 -0.53777999 -1.4058
-0.77547997 -0.47229999 -1.2345999
-0.86177999 -0.53368002 -1.3951
-0.76773 -0.54645002 -1.4285001
-0.68799001 -0.54101002 -1.4143
-0.87620997 -0.50204003 -1.3161
-0.77746999 -0.44793999 -1.1742001
-0.88703001 -0.51555002 -1.3515
-0.82183999 -0.49987999 -1.3104
-0.78052002 -0.48120001 -1.2614
-0.76859999 -0.54575998 -1.4306999
-0.73668998 -0.52433997 -1.3745
-0.68997002 -0.54132998 -1.4191
-0.94904 -0.54293001 -1.4272
-0.79144001 -0.45342001 -1.1919
-0.87200999 -0.50550002 -1.3288
-0.83280998 -0.50546998 -1.3286999
-0.73755997 -0.52372998 -1.3767
-0.69115001 -0.54101002 -1.4220999
-0.87149 -0.49675 -1.3099
-0.79299998 -0.45309001 -1.1947
-0.93002999 -0.53808999 -1.4189
-0.88804001 -0.53618002 -1.4138
-0.87506998 -0.53799999 -1.4186
-0.72508001 -0.51104999 -1.3476
-0.69713002 -0.54210001 -1.4294
-0.95270997 -0.54203999 -1.4339
-0.87190002 -0.49733999 -1.3156
-0.79414999 -0.45405999 -1.2011
-0.79319 -0.45508999 -1.2039
-0.79325998 -0.45673001 -1.2082
-0.88113999 -0.50984001 -1.3487
-0.82832003 -0.49991 -1.3225
-0.79036999 -0.48355001 -1.2792
-0.74814999 -0.52648002 -1.3927
-0.67842001 -0.52302003 -1.3836
-0.68839997 -0.53343999 -1.4111
-0.93409002 -0.53184003 -1.4111
-0.79883999 -0.45559001 -1.2088
-0.77811998 -0.44518 -1.1811
-0.76942998 -0.44167 -1.1718
-0.84859002 -0.48949999 -1.2987
-0.92522001 -0.53621 -1.4227
-0.84676999 -0.50994003 -1.353
-0.77341998 -0.46663001 -1.2381001
-0.74814999 -0.52512997 -1.3933001
-0.67802 -0.52135003 -1.3832
-0.68918997 -0.53271002 -1.4134001
-0.95376003 -0.53985 -1.4365
-0.82539999 -0.46809 -1.2456
-0.77539003 -0.44092 -1.1733
-0.77188998 -0.44042999 -1.1720001
-0.89714998 -0.51656002 -1.3745
-0.89054 -0.53346002 -1.4195
-0.77547997 -0.46502 -1.2374001
-0.87803 -0.53557003 -1.4251
-0.74394 -0.51863003 -1.3801
-0.6832 -0.52420002 -1.3949
-0.95028001 -0.53839999 -1.4368
-0.86865002 -0.49340001 -1.3167
-0.78644001 -0.44769999 -1.1948
-0.78454 -0.44973999 -1.2002
-0.8696 -0.50098997 -1.337
-0.83280998 -0.49880999 -1.3312
-0.80612999 -0.48960999 -1.3066
-0.76098001 -0.52961999 -1.4134001
-0.67961001 -0.51997 -1.3877
-0.91763002 -0.52021003 -1.3924
-0.78487998 -0.44565001 -1.1928
-0.77358001 -0.44068 -1.1795
-0.82735997 -0.47510999 -1.2717
-0.92743999 -0.53530997 -1.4328001
-0.84676999 -0.50603002 -1.3544
-0.77490997 -0.46397001 -1.2418
-0.75093001 -0.52102 -1.3945
-0.68360001 -0.52183998 -1.3967
0.44929001 -0.54014999 -1.4457
-0.85197997 -0.48124999 -1.2921
-0.77657002 -0.43966001 -1.1805
-0.77460998 -0.44007999 -1.1816
-0.89174002 -0.51120001 -1.3724999
-0.77697003 -0.46228001 -1.2412
-0.87803 -0.53136998 -1.4267
-0.76117003 -0.52484 -1.4092
-0.68035001 -0.51558 -1.3843
-0.85189998 -0.48155999 -1.2970999
-0.78254998 -0.44653001 -1.2027
-0.86838001 -0.49801001 -1.3414
-0.83728999 -0.4975 -1.34
-0.77292001 -0.46020001 -1.2395
-0.80366999 -0.48414001 -1.304
-0.76994002 -0.52963001 -1.4266
-0.67995 -0.51381999 -1.3839999
-0.92151999 -0.51998001 -1.4049
-0.83447999 -0.47699001 -1.2888
-0.92449999 -0.53109998 -1.4349999
-0.85723001 -0.50817001 -1.373
-0.77341998 -0.45923999 -1.2408
-0.76378 -0.45835 -1.2384
-0.76687002 -0.52600002 -1.4212
-0.68155003 -0.51368999 -1.3879
-0.85086 -0.47832999 -1.2964
-0.78307003 -0.44437999 -1.2043999
-0.88327003 -0.50389999 -1.3657
-0.90553999 -0.53390002 -1.4471
-0.77746999 -0.45877001 -1.2434
-0.77147001 -0.52570999 -1.4248
-0.68107003 -0.50971001 -1.3815
-0.94905001 -0.53279001 -1.4485
-0.84091997 -0.47307 -1.2861
-0.77952999 -0.44271001 -1.2036
-0.87023002 -0.49678999 -1.3506
-0.83929002 -0.49465001 -1.3448
-0.77341998 -0.45675001 -1.2417001
-0.80760998 -0.4826 -1.312
-0.78202999 -0.53173 -1.4456
-0.67945999 -0.50707 -1.3785
0.44479999 -0.52635998 -1.431
-0.83367002 -0.46768001 -1.2753
-0.83437997 -0.47476 -1.2946
-0.92514002 -0.52907997 -1.4428
-0.87418002 -0.51420999 -1.4022
-0.77392 -0.45581999 -1.243
-0.77116001 -0.45914 -1.252
-0.77675003 -0.52658999 -1.436
-0.68348002 -0.50885999 -1.3875999
0.44334 -0.52366 -1.428
-0.95008999 -0.53043002 -1.4512
-0.77318001 -0.43356001 -1.1861
-0.90350997 -0.51321 -1.4040999
-0.77746999 -0.45500001 -1.2448
-0.77043998 -0.45243001 -1.2378
-0.78094 -0.52591002 -1.4388
-0.68177998 -0.50391001 -1.3786
0.44391 -0.52024001 -1.4233
-0.86631 -0.48342001 -1.3269
-0.77266002 -0.43200001 -1.1858
-0.77122003 -0.43270001 -1.1877
-0.78163999 -0.44174001 -1.2125
-0.87715 -0.49836001 -1.3679
-0.84676999 -0.49491999 -1.3585
-0.77341998 -0.45289999 -1.2431
-0.81992 -0.48598 -1.334
-0.68015999 -0.50119001 -1.3757
-0.71042001 -0.52692997 -1.4464
0.44940999 -0.52350003 -1.437
-0.94505 -0.52653003 -1.4496
-0.77122003 -0.43156001 -1.1881
-0.84345001 -0.47767001 -1.3151
-0.89112997 -0.51994997 -1.4315
-0.77341998 -0.4517 -1.2436
-0.78889 -0.46597001 -1.2829
-0.78711998 -0.52727997 -1.4517
-0.71911001 -0.48201001 -1.327
-0.67975998 -0.49955001 -1.3753
-0.71201998 -0.52678001 -1.4503
0.44758001 -0.52052999 -1.4331
-0.80102998 -0.44418001 -1.2265
-0.91442001 -0.51710999 -1.4279
-0.77447999 -0.44951999 -1.2413
-0.72088999 -0.48006999 -1.3256
-0.68085003 -0.49696001 -1.3723
0.45367 -0.52200001 -1.4414001
-0.95074999 -0.52686 -1.4595
-0.80106997 -0.44451001 -1.2314
-0.78372002 -0.44091001 -1.2214
-0.86773002 -0.49070999 -1.3593
-0.85922998 -0.49829 -1.3803
-0.77143002 -0.44806001 -1.2412
-0.82977003 -0.48796999 -1.3518
-0.72220999 -0.47962999 -1.3286
-0.68166 -0.49618 -1.3745
-0.70801002 -0.51858997 -1.4366
-0.80624002 -0.44613001 -1.2399
-0.85551 -0.48231 -1.3404
-0.92229998 -0.52243 -1.4519
-0.90658998 -0.52473998 -1.4584
-0.77392 -0.44824001 -1.2458
-0.80760998 -0.47330999 -1.3154
-0.72176999 -0.47795001 -1.3283
-0.68085003 -0.49414 -1.3733
-0.70841002 -0.51740003 -1.438
0.45809001 -0.52280998 -1.4529999
-0.94764 -0.52213001 -1.4557
-0.82845002 -0.45730001 -1.275
-0.89877999 -0.50564998 -1.4098001
-0.78345001 -0.45096999 -1.2573
-0.76138997 -0.44277999 -1.2345001
-0.72043997 -0.47380999 -1.321
-0.71447998 -0.51836002 -1.4452
0.46792999 -0.52727997 -1.4701
-0.9235 -0.50905001 -1.4238
-0.83818001 -0.46307999 -1.2952
-0.88474 -0.49801999 -1.3929
-0.87817001 -0.50515002 -1.4129
-0.77490997 -0.4463 -1.2483
-0.84257001 -0.49144 -1.3746001
-0.72974998 -0.47881001 -1.3392
-0.67948997 -0.48824 -1.3656
-0.69787002 -0.50427997 -1.4105
-0.95036 -0.52263999 -1.4662
-0.92676997 -0.51134002 -1.4345
-0.78261 -0.43230999 -1.2128
-0.85326999 -0.47874999 -1.3431
-0.77292001 -0.44394001 -1.2455
-0.83025998 -0.48282 -1.3545001
-0.72886002 -0.47692001 -1.3380001
-0.67988998 -0.48723999 -1.3669
-0.70191997 -0.50599998 -1.4195
0.40285999 -0.52433002 -1.471
0.46682 -0.52345002 -1.4685
-0.93485999 -0.51264 -1.4425
-0.83302999 -0.45773 -1.288
-0.78312999 -0.43144 -1.214
-0.87103999 -0.48756999 -1.372
-0.93251002 -0.52441001 -1.4756
-0.82432997 -0.4711 -1.3256
-0.68217999 -0.48559001 -1.3664
-0.69169003 -0.49480999 -1.3923
0.40432999 -0.52169001 -1.4680001
-0.94828999 -0.51859999 -1.464
-0.89122999 -0.48875999 -1.3798
-0.83807999 -0.46086001 -1.301
-0.80519003 -0.44408 -1.2537
-0.77866 -0.43380001 -1.2247
-0.87481999 -0.49006999 -1.3835
-0.89561999 -0.51112998 -1.443
-0.77640003 -0.44351 -1.2521
-0.85536999 -0.49496999 -1.3973
-0.74487001 -0.48317999 -1.3641
-0.68518001 -0.4885 -1.3791
0.40333 -0.51924002 -1.4658999
0.44389999 -0.50132 -1.4152
-0.94582999 -0.51757002 -1.466
-0.92641002 -0.50863999 -1.4407001
-0.89993 -0.49568 -1.404
-0.85203999 -0.47571 -1.3474
-0.78038001 -0.44452 -1.2591
-0.85587001 -0.49380001 -1.3987
-0.74397999 -0.48117 -1.3629
-0.67973 -0.48095 -1.3623
-0.6925 -0.49254999 -1.3951
0.403 -0.51740998 -1.4655
-0.93089002 -0.50791001 -1.443
-0.91510999 -0.50098997 -1.4233
-0.91272998 -0.50146002 -1.4247
-0.88138998 -0.49103001 -1.395
-0.86272001 -0.48925 -1.39
-0.78806001 -0.45102999 -1.2814
-0.72841001 -0.46759999 -1.3285
-0.68118 -0.47870001 -1.36
-0.68544 -0.48389 -1.3748
0.40077001 -0.51133001 -1.4527
0.44404 -0.49632001 -1.4101
-0.94788998 -0.51590002 -1.4701999
-0.92281997 -0.50388998 -1.436
-0.92040998 -0.50436997 -1.4373
-0.85213 -0.46812001 -1.334
-0.77359998 -0.42886999 -1.2222
-0.87805003 -0.48958001 -1.3952
-0.91106999 -0.51577002 -1.4698
-0.77789003 -0.44067001 -1.2558
-0.88935 -0.51072001 -1.4554
-0.76589 -0.49122 -1.3999
-0.68217999 -0.48016 -1.3683
0.40042999 -0.50963002 -1.4523
0.44738001 -0.49774 -1.4184999
-0.95046002 -0.51586002 -1.4747
-0.92948997 -0.50615001 -1.447
-0.92808998 -0.5072 -1.45
-0.92821002 -0.50910002 -1.4554
-0.84122002 -0.46739 -1.3362
-0.91948003 -0.51346999 -1.4679
-0.78732997 -0.44487 -1.2718
-0.88688999 -0.50784999 -1.4518
-0.76811999 -0.49132001 -1.4046
-0.68014002 -0.47729999 -1.3645
0.40110001 -0.50882 -1.4546
0.44664001 -0.49573001 -1.4172
-0.91698003 -0.49603999 -1.4227
-0.91460001 -0.49651 -1.424
-0.93730998 -0.51084 -1.4651
-0.89042997 -0.48669001 -1.3958
-0.91640002 -0.50840002 -1.4581
-0.88564998 -0.49829 -1.4291
-0.85771 -0.48762 -1.3985
-0.75613999 -0.48010999 -1.3769
-0.68199998 -0.47530001 -1.3631999
-0.73363 -0.51530999 -1.4779
0.40287 -0.50646001 -1.4525
0.44490999 -0.49064001 -1.4071
-0.94119 -0.50779003 -1.4612
-0.91460001 -0.49502999 -1.4245
-0.92399001 -0.50198001 -1.4445
-0.94199002 -0.51375002 -1.4784
-0.85601997 -0.46788999 -1.3464
-0.7726 -0.42612001 -1.2262
-0.87873 -0.48750001 -1.4028
-0.81119001 -0.45594999 -1.3121001
-0.76138997 -0.43051001 -1.2388
-0.89674002 -0.51059997 -1.4693
-0.78479999 -0.49746001 -1.4315
-0.68036002 -0.47268 -1.3602
-0.73199999 -0.51257002 -1.475
0.40981999 -0.51389003 -1.4788001
0.47027001 -0.50988001 -1.4673001
-0.94489998 -0.51010001 -1.4729
-0.94294 -0.51086003 -1.4751
-0.94097 -0.51163 -1.4773
-0.93747002 -0.51155001 -1.4771
-0.82441002 -0.45547 -1.3152
-0.81616002 -0.45741001 -1.3207
-0.89625001 -0.50876999 -1.469
-0.76867998 -0.48541 -1.4016
-0.68159002 -0.47215 -1.3633
-0.73363 -0.51221001 -1.479
0.41117001 -0.51357001 -1.4829
0.40118 -0.50187999 -1.4491
0.46132001 -0.50105 -1.4468
-0.94634002 -0.50764 -1.4703
-0.94387001 -0.50812 -1.4717
-0.94651997 -0.51141 -1.4813
-0.94608003 -0.51301003 -1.4859
-0.89877999 -0.48877999 -1.4157
-0.87923998 -0.48495001 -1.4046
-0.92553997 -0.51278001 -1.4852
-0.92404002 -0.51381999 -1.4881999
-0.91307002 -0.50948 -1.4757
-0.89278001 -0.50348997 -1.4583
-0.7845 -0.49243 -1.4263
-0.67932999 -0.46722999 -1.3533
-0.73939002 -0.51280999 -1.4852999
0.41433001 -0.51245999 -1.4843
0.40292999 -0.49958 -1.447
0.46786001 -0.50266999 -1.4559
-0.94439 -0.50700003 -1.473
-0.94139999 -0.5072 -1.4736
-0.94659001 -0.51187998 -1.4872
-0.94306999 -0.51179999 -1.487
-0.85530001 -0.46517 -1.3515
-0.87187999 -0.48124 -1.3982
-0.92053998 -0.51042998 -1.483
-0.91755998 -0.51060998 -1.4835
-0.81715 -0.45545 -1.3233
-0.75996 -0.42447999 -1.2333
-0.78706998 -0.44154999 -1.2829
-0.80202001 -0.50240999 -1.4597
-0.71942002 -0.45072001 -1.3095
-0.67932999 -0.46594 -1.3537
-0.72422999 -0.50041002 -1.4539
0.40287 -0.50063002 -1.4545
-0.94593 -0.50638002 -1.476
-0.88712001 -0.47620001 -1.388
-0.94914001 -0.51179999 -1.4918
-0.94409001 -0.51089001 -1.4891
-0.93295997 -0.50660998 -1.4766999
-0.83376002 -0.45852 -1.3365
-0.92004001 -0.50867999 -1.4827
-0.92104 -0.51111001 -1.4898
-0.83256 -0.46285999 -1.3491
-0.76385999 -0.42701 -1.2447
-0.79978001 -0.49952 -1.456
-0.71942002 -0.44942001 -1.3099999
-0.68057001 -0.46549001 -1.3568
-0.72668999 -0.50073999 -1.4596
0.40994999 -0.50560999 -1.4737
0.40191999 -0.49586001 -1.4453
0.46935999 -0.50103998 -1.4604
-0.90227002 -0.4813 -1.4075
-0.89993 -0.48176 -1.4088
-0.94713998 -0.51107001 -1.4945
-0.90301001 -0.48868999 -1.4291
-0.87989998 -0.48293999 -1.4123
-0.91754001 -0.50580001 -1.4791
-0.88963997 -0.49195001 -1.4385999
-0.90167999 -0.50426 -1.4746
-0.79500002 -0.49304 -1.4418
-0.68093002 -0.46052 -1.3467
-0.68282002 -0.46380001 -1.3563
-0.73777002 -0.50511998 -1.4771
0.40360999 -0.49592999 -1.4503
0.40434 -0.49412999 -1.4450001
0.48835999 -0.51244998 -1.4986
-0.93052 -0.49511999 -1.4526
-0.88148999 -0.47036999 -1.38
-0.94761002 -0.50797999 -1.4904
-0.94413 -0.50976998 -1.4956
-0.85203999 -0.461 -1.3525
-0.85453999 -0.46911001 -1.3763
-0.8682 -0.47849 -1.4038
-0.78038001 -0.43077001 -1.2638
-0.81770003 -0.4551 -1.3352
-0.81168002 -0.50225002 -1.4736
-0.72069001 -0.44588 -1.3081
-0.68010002 -0.45859 -1.3455
-0.67909998 -0.4598 -1.349
-0.71020001 -0.48394001 -1.4198
0.40191999 -0.49296001 -1.4463
-0.94857001 -0.50519001 -1.487
-0.94709998 -0.50621998 -1.4901
-0.94514 -0.50883001 -1.4978
-0.93453002 -0.50487 -1.4861
-0.79404002 -0.43403 -1.2776
-0.82981998 -0.45561001 -1.3411
-0.78038001 -0.42951 -1.2643
-0.76187998 -0.42216 -1.2426
-0.81348997 -0.50193 -1.4773999
-0.67992997 -0.45903999 -1.3512
-0.71513999 -0.48604 -1.4306999
0.40327001 -0.49272999 -1.4504
0.48497 -0.50677001 -1.4917001
-0.9526 -0.50402999 -1.4886
-0.93832999 -0.49816999 -1.4713
-0.94812 -0.50525999 -1.4922
-0.91226 -0.4912 -1.4506
-0.79203999 -0.43162999 -1.2747
-0.78843999 -0.43118 -1.2733999
-0.89179999 -0.49425 -1.4597
-0.82410997 -0.50518 -1.492
-0.68093002 -0.45647001 -1.3480999
-0.69107997 -0.46555999 -1.3749
0.40468001 -0.49008 -1.4473
0.44358999 -0.47257999 -1.3957
-0.94139999 -0.49833 -1.4766001
-0.93229002 -0.49522999 -1.4675
-0.94262999 -0.50626999 -1.5002
-0.85281998 -0.45897999 -1.3601
-0.78411001 -0.43215999 -1.2806
