# .PCD v0.7 - Point Cloud Data file format
VERSION 0.7
FIELDS x y z
SIZE 4 4 4
TYPE F F F
COUNT 1 1 1
WIDTH 1386
HEIGHT 1
VIEWPOINT 0 0 0 1 0 0 0
POINTS 1386
DATA ascii
0.76850998 0.14368001 -1.704
0.78882003 0.15705 -1.7006
0.75871003 0.13986 -1.6993999
0.75726998 0.14135 -1.6967
0.76462996 0.1468125 -1.691825
0.76696998 0.150765 -1.6974001
0.77451503 0.152345 -1.6947501
0.78648996 0.155605 -1.6933999
0.79427499 0.155415 -1.6912999
0.80194998 0.15470999 -1.6921999
0.75566 0.14057 -1.6873
0.76484001 0.14726999 -1.6874
0.80892503 0.145265 -1.6831501
0.81432003 0.14525335 -1.6830333
0.82226002 0.14421001 -1.68115
0.77499199 0.151328 -1.6854401
0.78553504 0.15200166 -1.6847
0.79410332 0.15545 -1.6889
0.80452001 0.151685 -1.6874499
0.81263 0.15064333 -1.6858667
0.75256002 0.13958 -1.6754
0.79949999 0.13918 -1.6706001
0.80680752 0.138605 -1.6738499
0.81423748 0.13767751 -1.67275
0.82286251 0.13639501 -1.672075
0.83332998 0.13766 -1.6727
0.84159005 0.13587999 -1.671325
0.75597501 0.142055 -1.675
0.76514137 0.14615715 -1.6748286
0.77486998 0.14804333 -1.6766667
0.78703499 0.14791 -1.6751333
0.79804665 0.14427668 -1.6717666
0.80585998 0.14484499 -1.6758167
0.81481093 0.14451818 -1.6766274
0.8264634 0.14260499 -1.6750499
0.83147001 0.14183 -1.6723
0.77651 0.15006 -1.6794
0.78623992 0.1517 -1.6775666
0.79535002 0.15062334 -1.6789666
0.79661 0.12847 -1.6603
0.80129999 0.12862 -1.6622
0.82526499 0.12868001 -1.6630499
0.83348 0.12685999 -1.6617
0.84447592 0.127378 -1.66408
0.7448225 0.13615751 -1.66475
0.75089002 0.1388 -1.666
0.78482753 0.1381925 -1.6638
0.79393005 0.13763499 -1.66725
0.80709332 0.13397333 -1.6614332
0.81466717 0.13575858 -1.6668714
0.82473296 0.13451199 -1.6665399
0.83376122 0.13255875 -1.6654999
0.84557009 0.13369401 -1.66655
0.75395995 0.14131333 -1.6629333
0.76399249 0.14394501 -1.664
0.77499336 0.14326334 -1.6637667
0.78448784 0.1426111 -1.6655999
0.79355252 0.14374751 -1.668425
0.82014 0.1407 -1.6687
0.83564997 0.11958 -1.6538666
0.84094 0.11935 -1.6506
0.85820669 0.11831333 -1.6508666
0.86475331 0.11727333 -1.6515335
0.87537003 0.11723 -1.6507
0.78839999 0.12785999 -1.6524
0.79655004 0.127884 -1.6529601
0.80607605 0.12825401 -1.65334
0.81573778 0.12610777 -1.6544335
0.82520753 0.12567499 -1.65715
0.83440334 0.12522446 -1.6553777
0.84598434 0.12492143 -1.6558
0.85458404 0.12689799 -1.6578
0.86518401 0.122084 -1.65264
0.87431002 0.12426 -1.6505001
0.74627334 0.13570666 -1.6558666
0.75446248 0.13838124 -1.6560124
0.76608253 0.1364475 -1.652775
0.77331996 0.13661167 -1.6562333
0.78720504 0.13354251 -1.6529499
0.79577863 0.13283715 -1.6568143
0.80192 0.13227001 -1.6568999
0.81821501 0.131505 -1.65715
0.82244998 0.13135 -1.6552
0.75874001 0.14142999 -1.6579499
0.76564336 0.14185001 -1.6567
0.77415001 0.14137 -1.6573
0.85623997 0.10903 -1.6464
0.86728001 0.10565 -1.6408
0.87949002 0.10732 -1.6423
0.883205 0.10839 -1.642225
0.81540877 0.11614124 -1.6424127
0.82500803 0.11504301 -1.64273
0.83356601 0.115388 -1.64484
0.84544712 0.11706857 -1.6445571
0.85305005 0.114556 -1.6433399
0.86697 0.11217666 -1.6437334
0.87540376 0.1126425 -1.6435626
0.88257712 0.11352856 -1.6450142
0.76933002 0.12884 -1.6437
0.77666837 0.12777834 -1.6443834
0.78406 0.12524 -1.64518
0.79239619 0.12363125 -1.6444249
0.80511749 0.1238525 -1.64485
0.81216747 0.1226925 -1.64625
0.82339162 0.12181833 -1.6474999
0.83496332 0.12067 -1.6466999
0.845155 0.12079 -1.64845
0.85360664 0.12070667 -1.6472667
0.73404002 0.13188334 -1.6423334
0.74274004 0.132276 -1.6431
0.75697428 0.13561143 -1.6477715
0.76596445 0.13293889 -1.6463445
0.77643663 0.13224834 -1.6466833
0.78173 0.13068999 -1.6468
0.88299501 0.097914003 -1.63255
0.90634 0.095051996 -1.6325001
0.80430806 0.108982 -1.63148
0.81471997 0.10965333 -1.6321334
0.82620502 0.10838833 -1.6324166
0.83631331 0.10707334 -1.6312833
0.84654796 0.107392 -1.63468
0.85540253 0.107365 -1.6350625
0.86456996 0.1064425 -1.6358001
0.87596005 0.10386 -1.6333333
0.88444197 0.10417201 -1.6352202
0.89269578 0.1054 -1.6356715
0.90324801 0.10359399 -1.6319001
0.77629328 0.11855999 -1.6323
0.78327751 0.11725 -1.6324
0.7955783 0.11684916 -1.634325
0.80429602 0.116264 -1.6344999
0.81523502 0.114295 -1.6370749
0.82568997 0.11007 -1.6382999
0.83506995 0.11392888 -1.6382445
0.84501672 0.11348334 -1.6370335
0.85541403 0.112098 -1.6368001
0.86381495 0.1127025 -1.6377751
0.89589 0.110985 -1.6385
0.72839999 0.12953 -1.6323
0.73604673 0.127785 -1.6338834
0.74487627 0.12713125 -1.6328626
0.75456256 0.12579501 -1.6340749
0.76480377 0.1245725 -1.6346624
0.77230668 0.12297666 -1.6331668
0.78223997 0.12224001 -1.6382666
0.79479671 0.12225667 -1.6385833
0.80164999 0.12012 -1.6393
0.74530256 0.131935 -1.63785
0.75238001 0.13155 -1.6382
0.88687998 0.089543998 -1.6206
0.91413999 0.089929 -1.6275001
0.92135 0.087980002 -1.6215
0.81832999 0.099280998 -1.6212
0.82630998 0.099361993 -1.6225001
0.83921999 0.099565998 -1.6258
0.84493333 0.099417001 -1.6234001
0.85747749 0.0968685 -1.6217749
0.865125 0.096574374 -1.6237
0.874075 0.095583878 -1.624025
0.88532424 0.096773088 -1.6224667
0.89728749 0.096125752 -1.623175
0.904055 0.098030753 -1.6275249
0.91561002 0.092946 -1.62395
0.92364669 0.093834668 -1.6208334
0.77519006 0.10918333 -1.6251
0.78453499 0.1082775 -1.6232251
0.79602402 0.107426 -1.6260401
0.80518508 0.10457 -1.6216501
0.81480366 0.10513454 -1.6251
0.82531625 0.10411375 -1.624925
0.83517373 0.10514375 -1.6262376
0.84329003 0.10257401 -1.62518
0.85402 0.1021075 -1.626025
0.86506999 0.10344 -1.6260287
0.87303501 0.10371 -1.6241
0.88363004 0.10211501 -1.6262
0.89394796 0.10392199 -1.62586
0.90698498 0.10219 -1.62745
0.91255999 0.1021825 -1.6273
0.92135 0.10092 -1.6207
0.7349 0.11873 -1.6203001
0.74433601 0.117732 -1.62378
0.75588751 0.1188275 -1.627075
0.76483727 0.11595818 -1.6236907
0.77469605 0.11361001 -1.6245699
0.78472996 0.11274334 -1.6262168
0.79497802 0.111904 -1.62874
0.803285 0.111155 -1.6278501
0.71904999 0.12867001 -1.6215
0.72665 0.1256 -1.6232001
0.73654002 0.12276999 -1.6229
0.74714601 0.123744 -1.6258399
0.75541604 0.123594 -1.6283001
0.765755 0.122635 -1.62885
0.71981001 0.13237999 -1.6287
0.74338001 0.13076 -1.6284
0.92567003 0.079525001 -1.6116
0.84419 0.089038 -1.6114
0.86940002 0.089321002 -1.6165
0.87510329 0.089179665 -1.6139666
0.88610506 0.086444169 -1.6130333
0.89462817 0.085911363 -1.6130452
0.9057914 0.08581157 -1.6154287
0.91348428 0.08555086 -1.6148857
0.92407995 0.087823436 -1.6144
0.79551667 0.098772667 -1.6128668
0.80594397 0.096887402 -1.6138599
0.81170338 0.09777233 -1.6143667
0.82809335 0.095477007 -1.6121668
0.83543998 0.095985994 -1.6167285
0.84512269 0.095656998 -1.6150638
0.85423285 0.09462215 -1.6170428
0.86336666 0.092302673 -1.6127
0.87557203 0.092661001 -1.6189998
0.88654006 0.093195997 -1.6177374
0.895154 0.094558001 -1.6180999
0.90481639 0.094569452 -1.6165454
0.91499668 0.093644999 -1.6174334
0.92665112 0.094244331 -1.6152999
0.76469004 0.107605 -1.6131999
0.77656001 0.10487834 -1.6139165
0.78573 0.10342 -1.6154715
0.79517502 0.10164001 -1.6140833
0.80328 0.10255 -1.6196001
0.81277996 0.10143 -1.6197666
0.826105 0.100825 -1.6192
0.83130997 0.10081 -1.6188999
0.84644997 0.10087 -1.62
0.85786003 0.10057 -1.615
0.86608005 0.10252 -1.6191
0.89058 0.10087 -1.6198
0.73307002 0.11649 -1.6111
0.74448431 0.11503714 -1.6159285
0.75440162 0.11331084 -1.6168333
0.76642001 0.110545 -1.61895
0.72632003 0.12342 -1.6167001
0.73446006 0.12232333 -1.6171666
0.74388999 0.12097999 -1.6179
0.87726003 0.079003997 -1.6011
0.88692331 0.0777575 -1.6026832
0.905635 0.079039499 -1.6018
0.91494995 0.078150332 -1.6053667
0.80879003 0.088441998 -1.6006
0.82503998 0.086871997 -1.60115
0.83564001 0.084877744 -1.6010751
0.84805328 0.088747658 -1.6061667
0.85612249 0.085481003 -1.6047499
0.86598748 0.086004004 -1.60725
0.87364751 0.085118502 -1.6056999
0.88483667 0.082303002 -1.6048666
0.89472502 0.083081745 -1.6048
0.90399504 0.082364 -1.606075
0.91551441 0.082636215 -1.6047332
0.92110997 0.080729999 -1.605
0.75914001 0.098246001 -1.6043
0.76539254 0.098592252 -1.6032
0.77547598 0.095899403 -1.6028799
0.78555006 0.09641134 -1.6051835
0.79513836 0.095094658 -1.6056833
0.80534822 0.092484541 -1.6057273
0.81561923 0.093789071 -1.6065
0.82448798 0.0932758 -1.6073
0.83422625 0.091017 -1.6041374
0.85479665 0.090287663 -1.6052666
0.88314998 0.090202004 -1.6038001
0.89016002 0.090479001 -1.6087
0.7378 0.10939 -1.602
0.74620283 0.10646857 -1.6033143
0.75485998 0.10487251 -1.6053376
0.76480711 0.10449857 -1.6068285
0.77419502 0.10205833 -1.60715
0.78402328 0.10233667 -1.6071
0.79084998 0.10334 -1.6049
0.72451001 0.118605 -1.6077499
0.73337668 0.11283667 -1.6038666
0.7155 0.1224 -1.6033
0.72451001 0.12103 -1.6075
0.83126003 0.078542002 -1.5917
0.84354997 0.078660004 -1.5941
0.85575569 0.076803997 -1.5931143
0.86537421 0.077074572 -1.5943142
0.87586838 0.075497337 -1.59455
0.88278496 0.073926494 -1.5958
0.89362937 0.076056175 -1.5944824
0.90542603 0.073482595 -1.59358
0.914042 0.075952001 -1.59724
0.76806498 0.088848501 -1.59375
0.77722001 0.088819504 -1.593225
0.78430402 0.087363899 -1.5926801
0.79945499 0.085702501 -1.5942
0.80592602 0.085584797 -1.5950201
0.81490749 0.085005879 -1.5939686
0.82509434 0.086324856 -1.5952141
0.83563697 0.083053 -1.59496
0.84445626 0.083544381 -1.59455
0.85412997 0.082591698 -1.5951699
0.86593837 0.081840999 -1.5958166
0.87127501 0.083368003 -1.5946
0.89517999 0.080345005 -1.59735
0.91342998 0.083576001 -1.5992
0.7562933 0.098266333 -1.5954666
0.76455802 0.095029198 -1.59382
0.77508563 0.093051992 -1.5941286
0.78412598 0.092906795 -1.59552
0.73613149 0.10625429 -1.5967429
0.74700999 0.10081001 -1.5920999
0.75391674 0.10266667 -1.5969667
0.73031002 0.11058 -1.5947
0.70108998 0.12806 -1.5948
0.85977 0.068356998 -1.5807
0.8658967 0.066834666 -1.5827333
0.87348604 0.0668758 -1.5839
0.89584994 0.065212004 -1.582725
0.9040125 0.066471249 -1.5836999
0.77990001 0.079594001 -1.5824
0.78145999 0.078213997 -1.5851001
0.79646748 0.078156501 -1.5840499
0.80481339 0.077109002 -1.5844165
0.81326199 0.076226398 -1.58356
0.82350999 0.076253332 -1.5846444
0.83542997 0.075648539 -1.5856819
0.84369999 0.074502751 -1.5820749
0.85476601 0.073519006 -1.58718
0.864025 0.0738765 -1.586225
0.87562329 0.070974164 -1.5852833
0.88603753 0.070649505 -1.5871
0.89571202 0.072256997 -1.58816
0.90482408 0.070859209 -1.58632
0.75370747 0.088142999 -1.5810499
0.76624 0.087180994 -1.585
0.77234 0.086879499 -1.5866001
0.78642857 0.084715284 -1.5863857
0.79401702 0.084187999 -1.58654
0.80423802 0.082931995 -1.58676
0.81501669 0.08238367 -1.5864
0.8232767 0.082480669 -1.5883001
0.83511335 0.084577672 -1.5881001
0.84064996 0.083703503 -1.5866001
0.73545998 0.098447002 -1.581
0.74507618 0.09566088 -1.5846627
0.75435668 0.09233284 -1.58575
0.76194996 0.092045993 -1.587575
0.78406 0.090925001 -1.5887001
0.71938998 0.10799 -1.5815001
0.73695999 0.10026 -1.5835
0.70735002 0.11756 -1.5829999
0.72079998 0.11184 -1.5896
0.86298501 0.058537997 -1.5724001
0.89270669 0.058127332 -1.5757333
0.77919 0.069504 -1.5704
0.78529 0.069572002 -1.57195
0.7961933 0.069732666 -1.5756
0.80352002 0.069513001 -1.5706
0.81565332 0.069626331 -1.5731999
0.82342499 0.069554999 -1.5716
0.83551568 0.06671457 -1.5743716
0.84595662 0.066366501 -1.5744749
0.85456187 0.064291365 -1.5735545
0.86488169 0.063047409 -1.5741249
0.87376666 0.06456878 -1.5752444
0.88496661 0.065641895 -1.5755222
0.89396 0.063796438 -1.5731778
0.90284997 0.063486002 -1.5795
0.75528502 0.079106502 -1.57275
0.76705426 0.076295279 -1.5734714
0.77583396 0.077367403 -1.5746801
0.78455579 0.077251278 -1.5748285
0.79527408 0.074792199 -1.57388
0.80572438 0.074367449 -1.5745221
0.8154133 0.073015995 -1.5763665
0.82287002 0.071880661 -1.5752001
0.83428997 0.074533999 -1.5744333
0.84148002 0.071310997 -1.5747
0.74296999 0.088381 -1.5714
0.75497502 0.08360412 -1.5734375
0.76382005 0.082379006 -1.5762125
0.77531666 0.081518166 -1.5747499
0.73521 0.094081998 -1.575
0.74224496 0.093484499 -1.57845
0.72744 0.10164 -1.5784
0.70946002 0.11239 -1.5753
0.69844002 0.12213 -1.5784
0.85725999 0.048757002 -1.5615
0.82503003 0.058111001 -1.5609
0.83903998 0.059868999 -1.566
0.84290999 0.058120001 -1.5611
0.85211331 0.058891337 -1.5678
0.86554837 0.056674998 -1.5654835
0.87569296 0.056810398 -1.5649201
0.8853066 0.056287553 -1.5639
0.8918075 0.057857499 -1.565125
0.76991999 0.069081001 -1.5609
0.77710003 0.067767002 -1.5671
0.78346997 0.067732334 -1.5662999
0.79564667 0.067659333 -1.5646501
0.8064062 0.06650313 -1.56565
0.81539381 0.065867998 -1.5647125
0.82454228 0.065913223 -1.5652666
0.83549219 0.06358555 -1.5640666
0.84593993 0.065118998 -1.5672334
0.85092002 0.069367997 -1.5674
0.87519997 0.064643666 -1.5686835
0.88397002 0.061505999 -1.5683
0.74688339 0.077041 -1.5615333
0.75740284 0.075755857 -1.5671285
0.7650733 0.074893832 -1.5656834
0.77567106 0.072705895 -1.5658001
0.78591716 0.073073722 -1.5676286
0.79380673 0.072613664 -1.5679001
0.80672002 0.073384501 -1.56725
0.82456499 0.070998996 -1.5678
0.83047998 0.071041003 -1.5687
0.74326164 0.083634667 -1.5654665
0.76402003 0.080362998 -1.5674
0.72048002 0.09719 -1.5608
0.71551001 0.10215 -1.5633
0.84547997 0.048457999 -1.55195
0.85497999 0.049259998 -1.5527999
0.87595499 0.048453502 -1.5517499
0.88268501 0.048593 -1.55625
0.79290336 0.057697665 -1.5506001
0.806108 0.0587162 -1.55212
0.81520998 0.058623753 -1.5538249
0.82484001 0.055909112 -1.5540445
0.83516598 0.055062495 -1.5554199
0.84471643 0.053609636 -1.5557091
0.85457307 0.053678401 -1.55625
0.86519575 0.054566432 -1.5562714
0.87441194 0.051963605 -1.55576
0.88366145 0.052585281 -1.5575142
0.74574667 0.068185665 -1.5525335
0.75420499 0.068674996 -1.5517
0.76488632 0.065647878 -1.5548625
0.77574372 0.06382025 -1.5532501
0.78451574 0.063053712 -1.5516144
0.7922166 0.06406267 -1.5546999
0.80508327 0.063097335 -1.5568666
0.81410503 0.061733499 -1.5547
0.82106996 0.061837502 -1.55735
0.73706001 0.073909499 -1.5535499
0.74462879 0.074249126 -1.55645
0.75379664 0.071559668 -1.5565001
0.76204503 0.070474997 -1.5562
0.73290002 0.087736003 -1.5599
0.72543001 0.092278004 -1.5582
0.70462 0.10785 -1.5553
0.69081998 0.11693 -1.5532
0.70801002 -0.058217 -1.541
0.8150925 0.04895775 -1.5432
0.82462001 0.047365502 -1.5418
0.83455175 0.04821917 -1.5443832
0.84573334 0.046666998 -1.5443999
0.85641372 0.048002124 -1.5436749
0.86528504 0.047867 -1.545475
0.87357748 0.045849502 -1.5431499
0.88116002 0.046801999 -1.5488
0.76665998 0.058187 -1.5422
0.77541226 0.056793887 -1.5445334
0.78504163 0.056240331 -1.5463166
0.79521006 0.056731332 -1.5452166
0.80371833 0.055111002 -1.5441999
0.81464142 0.054185998 -1.5458
0.82381999 0.053650498 -1.5457
0.83107001 0.053752501 -1.5487
0.84325999 0.051421002 -1.5485001
0.85548002 0.051408 -1.5481
0.86623001 0.051406 -1.5481
0.72846997 0.069037005 -1.5420001
0.73562145 0.067951575 -1.5453571
0.74592167 0.064700671 -1.5446
0.75459009 0.064848505 -1.5469601
0.76399499 0.062489249 -1.5445499
0.77713501 0.062662505 -1.54935
0.78358501 0.062214501 -1.5474501
0.79432839 0.061220665 -1.5481668
0.8039 0.060563665 -1.5442667
0.72607666 0.074007332 -1.5414333
0.73326331 0.074850664 -1.548
0.74168003 0.070078999 -1.5475
0.68988001 0.11137 -1.5404
0.81873 -0.10246 -1.5328
0.80896997 -0.099706002 -1.5394
0.82600999 0.038614001 -1.5309
0.83363992 0.038636997 -1.5318333
0.84426999 0.037877999 -1.53195
0.85526252 0.036828499 -1.5350749
0.86549336 0.03648622 -1.5334778
0.76959997 0.049421001 -1.5336
0.77336663 0.048873667 -1.5324668
0.78365833 0.048679996 -1.5344501
0.79570502 0.0485995 -1.5318999
0.80299664 0.047336329 -1.5326
0.81477267 0.045658365 -1.5343362
0.82394838 0.046709836 -1.5372667
0.83561176 0.043016367 -1.5346909
0.84585834 0.043022666 -1.53415
0.85581332 0.043340001 -1.5361418
0.86352718 0.042815 -1.5331715
0.87260002 0.041819334 -1.5366665
0.73557663 0.058065336 -1.5322
0.74692285 0.05638757 -1.5330286
0.75489503 0.056951873 -1.5353625
0.764732 0.0549994 -1.53644
0.77560836 0.053300168 -1.5368
0.78407705 0.054312199 -1.5344002
0.79772747 0.051711746 -1.5350001
0.80504 0.052560002 -1.53825
0.72515428 0.064843431 -1.5357286
0.73605287 0.062938429 -1.5383288
0.74528599 0.060852803 -1.5361401
0.75759 0.060328998 -1.5383
0.72272998 0.072809003 -1.5376
0.70015001 0.10174 -1.5364
0.70196003 -0.059059002 -1.5249
0.85600996 0.029491 -1.5259
0.79795504 0.039159998 -1.5223999
0.80625325 0.037891999 -1.522
0.8159067 0.039465334 -1.5243999
0.82598752 0.035812251 -1.5243751
0.83521551 0.035703633 -1.5242726
0.84463 0.034426749 -1.5214875
0.85526752 0.033591624 -1.5260375
0.86389858 0.033980001 -1.5265285
0.75606251 0.046770748 -1.522675
0.76546669 0.047623664 -1.5252333
0.77426398 0.0457404 -1.5239599
0.78603673 0.046461999 -1.5263555
0.79519397 0.045471795 -1.52484
0.8036679 0.042765003 -1.5263599
0.81691837 0.0422865 -1.5258499
0.82487005 0.041164503 -1.526525
0.83820999 0.0408305 -1.5281
0.84476662 0.041109998 -1.5290999
0.85210001 0.041579001 -1.5276999
0.86276001 0.040059999 -1.5276999
0.71899337 0.056680333 -1.5227333
0.72516888 0.057219446 -1.5239444
0.73594874 0.05559 -1.5246749
0.7469933 0.051584333 -1.5239667
0.75503141 0.05238343 -1.5262144
0.76244247 0.051778749 -1.52475
0.77392 0.050795998 -1.5297
0.78627998 0.050733 -1.5277666
0.80137002 0.050806001 -1.53
0.71489 0.062049001 -1.5246999
0.72008997 0.061420001 -1.5281
0.7166 0.077404499 -1.52415
0.69853997 0.096410997 -1.5226001
0.85478997 -0.11164 -1.5125999
0.81476003 -0.1029 -1.5161999
0.83642 -0.10753 -1.517
0.70236999 -0.061838001 -1.5199
0.82841998 0.029258 -1.5139
0.83565998 0.029315 -1.5167999
0.84451002 0.028550999 -1.515625
0.85639 0.028791999 -1.5153333
0.73387003 0.038176998 -1.5136
0.75878 0.039627001 -1.5112
0.76555502 0.039701 -1.5139999
0.77492332 0.039742336 -1.5155668
0.78268498 0.039301999 -1.513225
0.79371744 0.036668252 -1.5132999
0.80566812 0.035224363 -1.5154454
0.81527805 0.034907598 -1.51484
0.82328671 0.032240499 -1.5156502
0.8343575 0.031875499 -1.51615
0.84334666 0.034295004 -1.5185333
0.71821499 0.048712999 -1.51165
0.72633499 0.048800498 -1.5143499
0.7356078 0.047753219 -1.5132111
0.74442625 0.045323875 -1.51255
0.75516856 0.044211287 -1.5136144
0.76408714 0.043135427 -1.5134714
0.77549666 0.042195838 -1.5137666
0.78423166 0.0429915 -1.5150667
0.79045993 0.043350335 -1.5186
0.70613998 0.053902604 -1.5145
0.7138775 0.054324165 -1.5145835
0.72712821 0.052257184 -1.5163181
0.73303002 0.051840998 -1.5172
0.74188501 0.050419003 -1.5183001
0.70660996 0.063119501 -1.5132999
0.71451002 0.064115003 -1.5185
0.71261001 0.079438001 -1.52
0.70868999 0.086906999 -1.5185
0.81972998 -0.10385 -1.508
0.82156003 -0.10518 -1.5055
0.83978999 -0.10933 -1.5012
0.84079999 -0.10837 -1.5079
0.78745002 -0.097217999 -1.501
0.80005997 -0.098981999 -1.5046
0.71715671 -0.070751004 -1.5026335
0.72343796 -0.073040403 -1.50368
0.73350495 -0.078503251 -1.502025
0.70749497 -0.063446999 -1.5012
0.71478599 -0.0680314 -1.50348
0.68996 -0.056823 -1.5041
0.69910002 -0.05968 -1.5033
0.70096999 -0.059590999 -1.5010999
0.67458999 -0.045405 -1.50525
0.68330997 -0.049302001 -1.5094
0.64779997 -0.013038499 -1.50535
0.804708 0.0287774 -1.50422
0.815045 0.027511001 -1.5029999
0.82685 0.024511499 -1.502625
0.83628285 0.024765285 -1.5049715
0.84550005 0.024433637 -1.504491
0.85320002 0.026179001 -1.5091
0.73282999 0.038408 -1.5029334
0.74631745 0.036449999 -1.50385
0.75468564 0.036973998 -1.5052779
0.76375002 0.036752 -1.5043601
0.77533424 0.03519557 -1.5050286
0.78401101 0.0348504 -1.5056999
0.79742998 0.031531002 -1.5051999
0.80473334 0.03378883 -1.50675
0.81197333 0.031025669 -1.5048
0.82801002 0.030602001 -1.5081
0.67614174 0.047663834 -1.5023834
0.68531716 0.048840713 -1.5026572
0.69403398 0.047473799 -1.5016401
0.7061311 0.047108665 -1.5036445
0.71373397 0.045467198 -1.50472
0.72493249 0.044501413 -1.5062666
0.73340005 0.042394001 -1.5028667
0.74512857 0.043846428 -1.5080858
0.75374669 0.041451998 -1.5048332
0.76010001 0.042528 -1.5079
0.69629198 0.055027001 -1.50308
0.70361328 0.054290831 -1.5067166
0.71812999 0.051548999 -1.5087
0.73180002 0.050136998 -1.5098
0.70011002 0.060493998 -1.505
0.80277002 -0.10133 -1.493
0.76760751 -0.091659501 -1.4965
0.77439004 -0.094600998 -1.4913001
0.78733665 -0.096269667 -1.4938999
0.79528999 -0.099735998 -1.4921
0.73786247 -0.081673995 -1.4983
0.74424124 -0.082258373 -1.495375
0.75469798 -0.086680502 -1.4947599
0.76387501 -0.089193001 -1.4934001
0.71588999 -0.073119998 -1.4986
0.72571903 -0.074242905 -1.4963635
0.73433143 -0.077633433 -1.4952428
0.69751501 -0.061160501 -1.493775
0.70532 -0.063507006 -1.4943999
0.71584338 -0.068254501 -1.4951833
0.68575668 -0.054043829 -1.4924334
0.69283497 -0.056777749 -1.4940749
0.70159334 -0.058865 -1.4949335
0.64823002 -0.024362501 -1.49755
0.815 0.019747 -1.4941
0.8228575 0.01973225 -1.4930251
0.83596998 0.017562 -1.49195
0.74370003 0.028845999 -1.4924999
0.75567001 0.0288605 -1.4932499
0.76896 0.024484999 -1.4908
0.77213001 0.025169499 -1.4906001
0.78845 0.027368501 -1.49245
0.79760998 0.025502499 -1.4948249
0.8052755 0.024130847 -1.4944613
0.81591821 0.024388455 -1.4954182
0.82432836 0.024195334 -1.4968166
0.83703333 0.021787336 -1.4976667
0.84284002 0.026008001 -1.4992
0.69532752 0.038790248 -1.4935
0.70591253 0.038801998 -1.4939001
0.7169975 0.038051501 -1.4937
0.72488248 0.038147248 -1.497425
0.73511732 0.035575364 -1.4957637
0.74367714 0.033724859 -1.496143
0.75487429 0.034525428 -1.4945285
0.76458222 0.032128226 -1.4947889
0.77477163 0.033062 -1.49625
0.78558332 0.030872667 -1.4974333
0.7917133 0.031376 -1.4982333
0.666031 0.0451205 -1.49343
0.67491639 0.044872001 -1.4943181
0.68559921 0.044479463 -1.4949
0.69540459 0.044626381 -1.4958539
0.70359749 0.042585749 -1.4966251
0.71424592 0.043135397 -1.49704
0.72365999 0.040661499 -1.494
0.68567502 0.052615501 -1.4955
0.69244504 0.054945998 -1.49755
0.80588496 -0.102255 -1.4848001
0.813375 -0.10381 -1.4856999
0.767205 -0.091362998 -1.4855
0.7756567 -0.093254834 -1.4855667
0.78351998 -0.095265001 -1.4821
0.79472399 -0.098577 -1.4840801
0.73688 -0.083164997 -1.49
0.74629861 -0.082265861 -1.4857142
0.75634003 -0.085216999 -1.4869667
0.76290196 -0.087556608 -1.48524
0.72547597 -0.0721182 -1.4847
0.73380995 -0.076355502 -1.4836501
0.74458504 -0.079739004 -1.4842
0.68952 -0.065209001 -1.4867001
0.69757497 -0.067245498 -1.4842
0.70672339 -0.063061997 -1.4855334
0.71495801 -0.067712799 -1.48448
0.67646003 -0.052868001 -1.4809
0.68431503 -0.05452675 -1.4849501
0.69203001 -0.056106333 -1.4860001
0.66992998 -0.04555 -1.4859999
0.67457598 -0.047618803 -1.4854
0.63935 -0.0210445 -1.4842
0.64520001 -0.026236 -1.4809
0.63563997 -0.012394999 -1.4822
0.64051998 -0.012851 -1.4837
0.76589996 0.019573333 -1.4809999
0.79436201 0.017077599 -1.48368
0.80416006 0.016603859 -1.4845858
0.81544 0.015442501 -1.4829999
0.82664502 0.016410623 -1.4847126
0.83423829 0.016111249 -1.4844418
0.67646003 0.027167499 -1.4816
0.71964002 0.028701 -1.485
0.72536993 0.028678333 -1.4838667
0.73615003 0.028678333 -1.4839001
0.74461496 0.026818 -1.482275
0.75681746 0.027572751 -1.483425
0.76524621 0.026915001 -1.48695
0.77406996 0.025364248 -1.4858416
0.7848931 0.024835 -1.486077
0.79415339 0.024902999 -1.4883333
0.81511998 0.025832999 -1.4891
0.82207 0.021152999 -1.4893
0.65573996 0.037577249 -1.482375
0.66533339 0.035956889 -1.4836777
0.67417008 0.035858359 -1.4847999
0.68437505 0.036747999 -1.4856125
0.69469798 0.035114497 -1.4852499
0.706065 0.035882201 -1.48676
0.71437621 0.033765249 -1.484175
0.72365302 0.0323251 -1.4851999
0.73513335 0.030218333 -1.4892
0.745502 0.030732203 -1.48594
0.75443 0.031139666 -1.4869334
0.76327503 0.031679999 -1.4895999
0.6569888 0.043590751 -1.4857876
0.6661033 0.040902663 -1.4848999
0.67469501 0.040452499 -1.4863501
0.68459672 0.041479666 -1.4881001
0.69481504 0.0412465 -1.4885
0.70550328 0.040492669 -1.4878
0.71259999 0.040525001 -1.489
0.66325998 0.050742 -1.4851
0.69002002 0.064328998 -1.4876
0.79914999 -0.10027 -1.4773999
0.80577332 -0.10186001 -1.472
0.81399006 -0.10445666 -1.4739333
0.82534665 -0.10685333 -1.4736334
0.83208001 -0.10886 -1.4749
0.77583498 -0.09188325 -1.4756751
0.78503251 -0.095121995 -1.474225
0.79654604 -0.098008797 -1.4756999
0.74759495 -0.080711499 -1.4734
0.75534248 -0.084177747 -1.4750999
0.76312834 -0.088016503 -1.4733334
0.77056998 -0.089616001 -1.4754
0.72603172 -0.072452001 -1.47475
0.73530251 -0.076785497 -1.4760001
0.74447 -0.079172499 -1.4737
0.68730998 -0.063262001 -1.4776
0.70875001 -0.064759001 -1.4765
0.71419251 -0.066996753 -1.477425
0.72042 -0.069187 -1.4797
0.67220497 -0.0510935 -1.4735501
0.68396997 -0.052754 -1.4777
0.66349 -0.046675 -1.4747
0.64840496 -0.034174502 -1.4755001
0.63663 -0.022404999 -1.4737
0.64064503 -0.026122 -1.47545
0.63585502 -0.01524375 -1.4730875
0.64131999 -0.017291 -1.474
0.63289666 -0.0099783661 -1.4753333
0.81714004 0.0087389993 -1.4722333
0.82345998 0.0092496499 -1.4739
0.63962996 0.0143365 -1.471
0.64411199 0.016268199 -1.4725001
0.71753001 0.016618 -1.4713
0.72658998 0.019432999 -1.4703
0.74848998 0.019485001 -1.4743
0.75570995 0.018525332 -1.4736667
0.76579875 0.01736475 -1.4731876
0.774867 0.0153366 -1.47342
0.78400004 0.0178228 -1.4761399
0.79612166 0.016211085 -1.4745334
0.80665141 0.015417 -1.4753286
0.81555855 0.013860143 -1.4734429
0.82344496 0.012519 -1.475125
0.64612001 0.025049999 -1.472975
0.65268999 0.029987 -1.4778
0.66671002 0.0275796 -1.4722
0.67581636 0.027192907 -1.4745818
0.68545002 0.027778376 -1.4749
0.69625139 0.028264571 -1.4740999
0.7049334 0.027045222 -1.4742222
0.71322995 0.026011666 -1.4745334
0.72516596 0.025015399 -1.4767799
0.73437196 0.025056899 -1.47709
0.74534893 0.024587 -1.4755778
0.75292796 0.024751201 -1.4771
0.76423001 0.021883201 -1.4763199
0.774212 0.0225104 -1.4743599
0.64591801 0.033661 -1.4732798
0.65460503 0.033890501 -1.4767601
0.66423243 0.032856248 -1.476375
0.6769442 0.033619333 -1.4777917
0.68462992 0.032865334 -1.4767169
0.69523168 0.032365162 -1.4760833
0.70599669 0.032373 -1.4764333
0.71432501 0.032181501 -1.4788001
0.64695001 0.047453001 -1.4725
0.65342999 0.045401499 -1.4786999
0.66165 0.040201001 -1.4771
0.65710497 0.050370499 -1.4742
0.66613996 0.050450001 -1.4765
0.68831998 0.078745998 -1.4786
0.80573004 -0.1014125 -1.462
0.81257999 -0.103805 -1.4644001
0.82492501 -0.106155 -1.4672999
0.775424 -0.091035999 -1.46444
0.78368002 -0.093657337 -1.4647168
0.79483253 -0.097436756 -1.4635999
0.74944001 -0.080861337 -1.4669
0.75550836 -0.083543159 -1.4660001
0.76510429 -0.087110147 -1.4649143
0.72696495 -0.072317503 -1.4667
0.73429662 -0.075928837 -1.4662666
0.74669999 -0.078810498 -1.4669499
0.68355 -0.068530999 -1.4657
0.69766003 -0.061050002 -1.4634
0.71373004 -0.067216329 -1.4670666
0.72059 -0.069899999 -1.4643
0.65720999 -0.050652999 -1.46085
0.69458002 -0.059760999 -1.4687999
0.64898002 -0.041870002 -1.4601001
0.66441399 -0.045488402 -1.4645201
0.67277998 -0.047993001 -1.4693
0.64789599 -0.032005802 -1.4616001
0.65820003 -0.036113001 -1.46305
0.63552284 -0.022374999 -1.4642857
0.64263338 -0.026174 -1.4653667
0.63595814 -0.014776546 -1.464891
0.64200002 -0.0141665 -1.46165
0.62771499 -0.0068855747 -1.4645
0.63397688 -0.0054615159 -1.4625461
0.64096999 -0.0031896001 -1.4679999
0.63590568 0.0037900757 -1.4635571
0.64400673 0.0049316557 -1.4632111
0.79088998 0.0076914001 -1.4635
0.80689001 0.0077679004 -1.4638667
0.81432748 0.0073839999 -1.465675
0.82352 0.0092035998 -1.4665999
0.63742101 0.014714334 -1.4657999
0.642914 0.015284799 -1.4627399
0.6551525 0.017704502 -1.4633875
0.66342002 0.016985668 -1.4627333
0.67769998 0.019329 -1.4625
0.68603724 0.017659547 -1.4627635
0.69137502 0.0186125 -1.4619501
0.71598595 0.017953899 -1.4645699
0.72679496 0.017965 -1.4655499
0.73563999 0.018337285 -1.4635286
0.74552447 0.016053667 -1.464
0.75449395 0.014526 -1.4643999
0.76617748 0.0158445 -1.4674499
0.77480876 0.0154025 -1.466125
0.784181 0.011920599 -1.46538
0.79423499 0.0113025 -1.4684501
0.80547792 0.012102 -1.4670601
0.81085998 0.011959 -1.4680001
0.637025 0.02649625 -1.4634
0.64553285 0.025116945 -1.4648334
0.65464211 0.025317632 -1.4662052
0.66344005 0.024086859 -1.465557
0.67452401 0.024497399 -1.46334
0.68776578 0.025826856 -1.4658998
0.69481725 0.024418728 -1.4654545
0.70590001 0.023316501 -1.4677082
0.71300876 0.023159249 -1.4657375
0.72598833 0.021842832 -1.46675
0.73495805 0.021400202 -1.4641601
0.74321997 0.020785499 -1.4634
0.75178999 0.021627 -1.4691999
0.64335001 0.037062503 -1.4691
0.68840998 0.031261001 -1.4699
0.69406998 0.031238999 -1.4689
0.70074999 0.031252999 -1.4694999
0.64468503 0.0464825 -1.4658
0.64682001 0.050117999 -1.4668
0.66895998 0.051626001 -1.4679
0.8082633 -0.10026 -1.4558667
0.81310594 -0.102376 -1.45684
0.82067001 -0.10484 -1.4586999
0.78513253 -0.092616625 -1.45505
0.79580379 -0.097439997 -1.4550875
0.74681997 -0.08117 -1.4543
0.75357002 -0.082664996 -1.4546
0.76580995 -0.086539194 -1.4581
0.77351665 -0.088950336 -1.4563333
0.72362 -0.071176998 -1.4588
0.73433 -0.076188996 -1.4577501
0.69865 -0.063798003 -1.4545
0.70918 -0.066734999 -1.4562
0.71639001 -0.068863496 -1.4575
0.66856003 -0.050505999 -1.4566
0.67606002 -0.053497002 -1.4562
0.68332499 -0.057068501 -1.45525
0.65331799 -0.041237403 -1.4581001
0.66499996 -0.046129599 -1.45698
0.63524002 -0.030002 -1.452
0.64637858 -0.032609858 -1.4557143
0.65441751 -0.036684752 -1.4564124
0.63637245 -0.025011376 -1.4555
0.64456773 -0.026497999 -1.4532223
0.63708532 -0.015734307 -1.455977
0.64249772 -0.014655156 -1.4536693
0.62467396 -0.00305386 -1.4570401
0.63518345 -0.0053909202 -1.455745
0.64355212 -0.005778105 -1.4530264
0.65489835 -0.00229815 -1.4533
0.62538832 0.0038503681 -1.4543834
0.63529187 0.0050921622 -1.4568063
0.6441825 0.005441342 -1.4541812
0.65606505 0.0066649816 -1.4528201
0.66393834 0.0061856336 -1.4513167
0.67397505 0.0083732009 -1.4523001
0.69682002 0.0072051999 -1.4511666
0.70218998 0.0076282001 -1.4514
0.72679001 0.0091012996 -1.4503
0.73348999 0.0076247999 -1.4507999
0.74801999 0.0076384 -1.4534
0.7561233 0.0057899002 -1.4524666
0.76469499 0.0073654251 -1.451475
0.77439106 0.0063987598 -1.45319
0.78476536 0.0057832152 -1.4532
0.79477376 0.0062582372 -1.45435
0.80528378 0.0032211156 -1.4553692
0.81459874 0.0042954613 -1.4556
0.62981999 0.016476 -1.4586999
0.63488996 0.0105585 -1.45705
0.64505529 0.014482941 -1.4568058
0.65454769 0.013783054 -1.4543668
0.6648863 0.014867053 -1.4544526
0.67463702 0.01443259 -1.4554472
0.68573201 0.013096666 -1.4537734
0.69505531 0.015591265 -1.4540335
0.70449668 0.013811916 -1.4538751
0.71577168 0.014193415 -1.4546666
0.72654384 0.014726768 -1.4549384
0.73499358 0.012822729 -1.4549454
0.74472499 0.012981832 -1.4574165
0.75310874 0.01161375 -1.4555376
0.76475799 0.011083 -1.45702
0.7978 0.010571 -1.4588
0.62968999 0.023863001 -1.4529999
0.6344533 0.023226 -1.4579333
0.64192998 0.022226 -1.4586999
0.66620332 0.020641999 -1.4533333
0.67467147 0.022436572 -1.4542571
0.68255997 0.021888001 -1.457525
0.63198 0.040932 -1.4513
0.64643502 0.0510865 -1.4526
0.65916997 0.051215999 -1.4563
0.66575998 0.052758001 -1.457
0.67466003 0.065932997 -1.4559
0.81353498 -0.10195 -1.44865
0.785945 -0.092924498 -1.4456999
0.79689723 -0.096113287 -1.4444858
0.80299002 -0.0981315 -1.4459
0.811535 -0.099740498 -1.4484
0.71358001 -0.081955001 -1.4421
0.75542498 -0.083644003 -1.44735
0.76501 -0.086415 -1.4469
0.77068001 -0.089262001 -1.4454
0.71692002 -0.071884997 -1.4428999
0.72251999 -0.073267996 -1.4417
0.74108005 -0.078554496 -1.448
0.69471002 -0.063288003 -1.4428999
0.66580999 -0.050159998 -1.4467
0.67048502 -0.052422501 -1.4467499
0.68251997 -0.058727998 -1.4434
0.65615249 -0.043217249 -1.4447
0.665555 -0.047970504 -1.4463
0.63213998 -0.032729998 -1.4411
0.64591253 -0.034452129 -1.4462124
0.65206885 -0.036535747 -1.4430749
0.63686496 -0.022778666 -1.4470167
0.64617002 -0.025817409 -1.4454647
0.65131253 -0.021601252 -1.443375
0.63441002 -0.018416001 -1.4401
0.64507157 -0.015968459 -1.4446125
0.65213752 -0.015447374 -1.4422375
0.66605997 -0.011035 -1.4427
0.64619935 -0.0058346796 -1.4447602
0.65619767 -0.0041063232 -1.4451232
0.66367859 -0.0031159429 -1.4446429
0.67575336 -0.0024144 -1.4436001
0.68453002 -0.0024511002 -1.44285
0.72986001 -0.0011221 -1.4401
0.73321003 -0.0011223 -1.4403
0.75613999 -0.0024099001 -1.4409
0.76359338 -0.0015557666 -1.4439999
0.77187502 -0.0011239999 -1.4425499
0.78740001 -0.0031341999 -1.4435
0.80612004 -0.0011289499 -1.44885
0.81039 -0.001128 -1.4477
0.62353498 0.0061359 -1.4474
0.64681274 0.0029160366 -1.4471637
0.65457761 0.0038936189 -1.4475691
0.66445237 0.0038405368 -1.4455413
0.67573237 0.0050905002 -1.4457059
0.68378597 0.0060462109 -1.4450266
0.69598824 0.0071338816 -1.4449636
0.70346665 0.0069362503 -1.4424167
0.71503109 0.0067033884 -1.4456
0.72538251 0.005967183 -1.4442749
0.73525184 0.006112963 -1.4437938
0.74516785 0.0053926148 -1.4450142
0.75458461 0.0056147925 -1.446177
0.76471299 0.0037247229 -1.44701
0.77439332 0.0033407686 -1.4470999
0.78474331 0.0040430501 -1.4452833
0.79277402 0.00160646 -1.4445601
0.80698001 0.0031856999 -1.4477
0.81097001 0.0031876001 -1.4485
0.62232494 0.017059501 -1.4451499
0.65140003 0.015062 -1.4489
0.66352499 0.0111515 -1.44885
0.67290002 0.010501 -1.4491
0.68457001 0.010493 -1.448
0.69328994 0.014742125 -1.4482876
0.70401335 0.012473334 -1.4475666
0.71524602 0.0123182 -1.4480399
0.72150499 0.0111555 -1.44945
0.62484002 0.029302999 -1.4441
0.66960001 0.020575 -1.4487
0.63075995 0.034412 -1.4493001
0.63637 0.050742 -1.4428
0.64863002 0.050942 -1.4485
0.6595 0.057911001 -1.4408
0.77810001 -0.090187997 -1.4367
0.78037 -0.092634 -1.4302
0.80071002 -0.097415 -1.4353
0.75120002 -0.084072001 -1.431
0.76322502 -0.087694496 -1.4317999
0.71945 -0.074155003 -1.4317
0.72706002 -0.075870998 -1.4387
0.68292999 -0.061383002 -1.4337
0.70115 -0.066999003 -1.4329
0.71094 -0.068671003 -1.4385
0.66886401 -0.052788801 -1.4362
0.67341501 -0.054563001 -1.4334999
0.68199998 -0.058837663 -1.4340334
0.65630609 -0.0429748 -1.4342899
0.66297001 -0.047478598 -1.43566
0.63455498 -0.036921751 -1.43735
0.64871001 -0.033271 -1.4333501
0.65401411 -0.035825174 -1.4342176
0.63942999 -0.024063 -1.4383
0.64677703 -0.0258529 -1.4359
0.65464538 -0.025580002 -1.435041
0.66582125 -0.025183825 -1.4342434
0.67265999 -0.0218105 -1.4305999
0.64870501 -0.017609 -1.436275
0.6558587 -0.015071654 -1.4363002
0.66419536 -0.0161098 -1.4336399
0.67514557 -0.014927 -1.4339443
0.68247002 -0.014914334 -1.4325333
0.69619501 -0.011693751 -1.433975
0.70468336 -0.011932333 -1.4334
0.72448999 -0.015351 -1.4316
0.75400001 -0.010959 -1.4327
0.64861995 -0.0087083662 -1.4370667
0.65615004 -0.0080663003 -1.4373221
0.66552043 -0.0059493263 -1.435752
0.67463136 -0.0051353532 -1.4351933
0.6847896 -0.0053017391 -1.4332479
0.69402546 -0.005728391 -1.4329818
0.7048533 -0.0037539501 -1.4353999
0.713875 -0.003876393 -1.4333643
0.72443497 -0.0037322701 -1.4340299
0.73565596 -0.0018868601 -1.4351799
0.74417144 -0.0039161714 -1.4339143
0.75440556 -0.0029334 -1.4355444
0.76548666 -0.0031109999 -1.43215
0.77435696 -0.0034516896 -1.43251
0.78465003 -0.00431416 -1.4331398
0.79456836 -0.0041084834 -1.4345499
0.80469 -0.0024075001 -1.4395
0.61426997 0.0039697499 -1.43595
0.65749002 0.0047924998 -1.4385
0.66667998 0.002245395 -1.4386251
0.67448246 0.00079765503 -1.436325
0.68548399 0.002698411 -1.43724
0.69465107 0.0024350269 -1.43707
0.70396417 0.0048213503 -1.437325
0.71440673 0.0035906646 -1.4356555
0.72603005 0.0020954984 -1.4373666
0.73452502 0.00079834001 -1.4373999
0.74614 0.0011543251 -1.4355
0.75395 0.0026158551 -1.4375999
0.76852 0.0018733999 -1.4399
0.77604002 0.00044082335 -1.4380999
0.78375 0.00044082999 -1.4381
0.61258 0.010383 -1.4329
0.61708999 0.021792 -1.4302
0.61998999 0.031941999 -1.4353
0.64643002 0.050622001 -1.4394
0.73339999 -0.091064997 -1.4278001
0.77474999 -0.091003999 -1.4268
0.79334003 -0.095559999 -1.4296
0.74739999 -0.083446003 -1.4203
0.75681001 -0.085380003 -1.4296
0.77026999 -0.089158997 -1.4203
0.71517998 -0.072424002 -1.4251
0.72952998 -0.076693997 -1.4275
0.73394001 -0.079775997 -1.4293
0.67896998 -0.060885001 -1.4220999
0.68874663 -0.062963672 -1.4246334
0.69346499 -0.065215006 -1.4230499
0.70261002 -0.069288999 -1.4201
0.66760999 -0.051820334 -1.4239
0.67534751 -0.054267064 -1.4239876
0.68077999 -0.056652501 -1.4253
0.65784502 -0.043688875 -1.4248875
0.66479784 -0.045348134 -1.4239863
0.67446232 -0.045041695 -1.4226462
0.682055 -0.042133503 -1.4203501
0.62059999 -0.032382999 -1.4258
0.63125998 -0.038130999 -1.4288
0.64870501 -0.033148497 -1.4281499
0.65619868 -0.035327666 -1.4265534
0.6644538 -0.034588113 -1.4251462
0.67271334 -0.03416967 -1.42195
0.68808496 -0.031541999 -1.42045
0.69319999 -0.031616002 -1.4237499
0.65514249 -0.023558 -1.427825
0.66652286 -0.026857141 -1.4256287
0.67430001 -0.024364047 -1.4242183
0.68509746 -0.023772167 -1.4227999
0.69438004 -0.024891555 -1.4232888
0.70728505 -0.020879 -1.4216499
0.59994 -0.013903 -1.4204
0.65832496 -0.013830001 -1.42695
0.66477406 -0.015630599 -1.4281
0.67405897 -0.015400579 -1.4258685
0.68523222 -0.015286046 -1.42585
0.69483185 -0.015707249 -1.4235376
0.70582128 -0.014981251 -1.4240625
0.71483719 -0.014194429 -1.4241573
0.72489095 -0.014248 -1.4236546
0.73546398 -0.0142056 -1.4220201
0.74322623 -0.013789624 -1.4230374
0.75657499 -0.012414999 -1.4244
0.77362251 -0.01235625 -1.4219751
0.78236288 -0.011518142 -1.4250001
0.60312998 -0.0037968 -1.421
0.67490995 -0.0096674506 -1.4293499
0.68522751 -0.0053906748 -1.4286749
0.695198 -0.0068597198 -1.42732
0.70372802 -0.0067334198 -1.4275601
0.71550655 -0.0078562889 -1.4285111
0.72349423 -0.0059791082 -1.4259334
0.73516613 -0.0063904282 -1.4260111
0.74389875 -0.0068816878 -1.4253376
0.75433928 -0.0072272429 -1.4259357
0.76441646 -0.0065815998 -1.4262637
0.77627575 -0.0075877425 -1.4284858
0.78438222 -0.0067079384 -1.4260386
0.79324001 -0.0060681882 -1.426211
0.69780248 0.00043728249 -1.4265251
0.70452499 0.00043600501 -1.4224
0.7138567 0.0013839799 -1.4281334
0.61801499 0.0450975 -1.42345
0.62382001 0.050143 -1.4258
0.79212999 -0.096252002 -1.4182
0.73685998 -0.080642998 -1.419
0.74241996 -0.082479499 -1.4152501
0.75632 -0.087333001 -1.4141001
0.70515501 -0.070577994 -1.4167
0.71517664 -0.074181996 -1.4151
0.72229499 -0.076569498 -1.41135
0.73416001 -0.077248998 -1.4102
0.67808002 -0.060608 -1.4155999
0.68719858 -0.061883859 -1.4162284
0.69322628 -0.063882999 -1.4139625
0.703605 -0.068512753 -1.41185
0.71818 -0.067323998 -1.4103
0.67820501 -0.053243998 -1.4177999
0.68346626 -0.054847814 -1.4148844
0.69465292 -0.056872718 -1.4121572
0.70112002 -0.053979002 -1.41345
0.65771002 -0.042677499 -1.4151
0.66886497 -0.041383997 -1.4186749
0.67582119 -0.046110474 -1.4165941
0.68343502 -0.044448223 -1.4136221
0.695324 -0.0422116 -1.41348
0.70168334 -0.046169002 -1.4129667
0.72148001 -0.040479999 -1.4116
0.6661225 -0.037250504 -1.4154875
0.67525381 -0.034536291 -1.4154207
0.68495393 -0.036115501 -1.4149443
0.69445622 -0.03414781 -1.415125
0.70413721 -0.032999001 -1.41395
0.71267498 -0.031369999 -1.4126999
0.72643501 -0.030644 -1.4122
0.73140001 -0.030652 -1.4126
0.66785336 -0.028803667 -1.4181666
0.67620331 -0.027667833 -1.4186
0.68460661 -0.026237667 -1.4177833
0.69513237 -0.02503019 -1.4147905
0.70590115 -0.025855293 -1.4140117
0.71464819 -0.024265286 -1.4136429
0.72506124 -0.024471125 -1.4120374
0.73546273 -0.024011636 -1.4131908
0.74459755 -0.023949249 -1.4122626
0.75742 -0.022955999 -1.4111
0.68238997 -0.016644999 -1.4189
0.6956684 -0.017832667 -1.4171667
0.70522994 -0.015021143 -1.4167143
0.714118 -0.016309468 -1.4165733
0.72555572 -0.015662583 -1.4176
0.73478401 -0.016374199 -1.41801
0.74474627 -0.016079158 -1.4150685
0.75437057 -0.0148723 -1.4147949
0.76391888 -0.014528889 -1.4147
0.77513552 -0.015515778 -1.4147222
0.78555441 -0.014396627 -1.41635
0.59514999 -0.0066451998 -1.4116
0.7159 -0.0095915003 -1.4181
0.72473502 -0.0095852502 -1.4172001
0.75493002 -0.00958475 -1.4171
0.78762001 -0.009602 -1.4197
0.60565001 0.020096 -1.4148999
0.76966 -0.091306999 -1.4097
0.77630001 -0.092435002 -1.405
0.78307003 -0.094250001 -1.41
0.73335999 -0.081020996 -1.4015501
0.74521744 -0.084206253 -1.4037
0.76463997 -0.088338003 -1.4072
0.7067225 -0.071423247 -1.405575
0.71512669 -0.072509669 -1.4044999
0.72490525 -0.076402739 -1.4034535
0.73390502 -0.077688999 -1.40495
0.69496942 -0.062826842 -1.4047999
0.70542151 -0.065766081 -1.4050307
0.7137906 -0.065854624 -1.4035438
0.68636274 -0.054353181 -1.4063363
0.69645631 -0.054667939 -1.4047439
0.70334053 -0.055071887 -1.4040942
0.71643996 -0.056134999 -1.4016334
0.68637311 -0.045594938 -1.4067124
0.69494146 -0.044300642 -1.4056715
0.70483726 -0.043877002 -1.403859
0.71500856 -0.043716926 -1.4028643
0.72166598 -0.042677797 -1.40116
0.73170996 -0.041621499 -1.4031
0.75756001 -0.043037999 -1.4037
0.68485999 -0.033376001 -1.4076999
0.69508338 -0.037381668 -1.4051666
0.7061854 -0.035470076 -1.4058309
0.71513391 -0.034312386 -1.4054165
0.72473454 -0.03493518 -1.4044636
0.73473644 -0.032281928 -1.4042072
0.74510819 -0.032984089 -1.4027091
0.75252628 -0.035506751 -1.4029626
0.77428246 -0.032551501 -1.4024251
0.697245 -0.025613751 -1.4093001
0.70972002 -0.025678501 -1.4082
0.71699375 -0.026636876 -1.4073875
0.72473329 -0.0246595 -1.4068917
0.73378271 -0.026237 -1.4066455
0.74369812 -0.025224814 -1.4054999
0.75509435 -0.023783213 -1.405907
0.76419175 -0.023860356 -1.4044116
0.77443582 -0.023688249 -1.4035999
0.78131336 -0.021719331 -1.4072666
0.74522001 -0.019275 -1.4097
0.75628406 -0.016474199 -1.40616
0.76305443 -0.017899776 -1.4054555
0.7737 -0.018826999 -1.4073334
0.78189498 -0.019265 -1.4089501
0.59303999 0.0018248 -1.4025
0.60275 0.013114 -1.4097
0.76280499 -0.090200499 -1.3926001
0.77334499 -0.092424497 -1.3937
0.73748499 -0.08083 -1.3982
0.74535269 -0.082976207 -1.3948199
0.75496 -0.084394999 -1.3937445
0.71472168 -0.072139002 -1.39745
0.72535497 -0.073589675 -1.394125
0.73329204 -0.076963603 -1.39448
0.74308598 -0.078756399 -1.39578
0.69501334 -0.063532673 -1.3968
0.70494795 -0.064673401 -1.3984799
0.71568286 -0.065092616 -1.3947953
0.7247141 -0.063821249 -1.3932167
0.73329705 -0.065516286 -1.3923427
0.75009 -0.063785002 -1.3918
0.68611002 -0.051449001 -1.3993
0.69861001 -0.059912998 -1.3994
0.70575869 -0.055271357 -1.3976858
0.71509409 -0.055394337 -1.3967543
0.72439945 -0.055629175 -1.3934706
0.734887 -0.053648103 -1.3955901
0.74212998 -0.051983166 -1.3946667
0.68422002 -0.049936999 -1.3987501
0.69521165 -0.047008831 -1.39615
0.70632726 -0.047002722 -1.3957181
0.71610498 -0.04731058 -1.3946167
0.72548431 -0.043821108 -1.395579
0.73543763 -0.045367923 -1.3954154
0.74402559 -0.045314189 -1.3950562
0.75347191 -0.04379091 -1.3950365
0.76556396 -0.040820602 -1.3947198
0.77135003 -0.048300497 -1.393
0.70680666 -0.037322 -1.3985
0.71400666 -0.036814503 -1.3968834
0.725182 -0.036428001 -1.39666
0.73400152 -0.036907997 -1.3953462
0.7437138 -0.036018874 -1.3951626
0.75489998 -0.033610001 -1.395938
0.76435536 -0.035406996 -1.3944236
0.77349001 -0.035121664 -1.3941666
0.74455279 -0.026673427 -1.3983285
0.75514877 -0.027102375 -1.3957875
0.76548874 -0.026216498 -1.3944876
0.77472496 -0.026744001 -1.3961499
0.74637002 -0.082415998 -1.3869666
0.75525171 -0.084493116 -1.385353
0.76296753 -0.086285383 -1.38315
0.72769243 -0.073410086 -1.3862082
0.73465729 -0.073854551 -1.3854817
0.74421233 -0.074728563 -1.38428
0.75481504 -0.075284414 -1.3829917
0.71701998 -0.068243675 -1.3891667
0.7254914 -0.065849647 -1.3872786
0.73575103 -0.064535446 -1.386005
0.74540001 -0.064522997 -1.38394
0.75557458 -0.064916186 -1.3819636
0.71730196 -0.054234196 -1.38642
0.72709572 -0.057564717 -1.3880571
0.73508263 -0.056601796 -1.3852
0.74410665 -0.054972995 -1.3833618
0.75522602 -0.054564059 -1.3833901
0.76403004 -0.053582001 -1.38366
0.71910501 -0.047447003 -1.3885
0.72598875 -0.047254123 -1.3877
0.73268604 -0.0433424 -1.38648
0.7437945 -0.046418559 -1.3873667
0.75541621 -0.045301214 -1.3868263
0.76403165 -0.046107665 -1.3864001
0.73193997 -0.039839 -1.3892
0.74454999 -0.036389999 -1.3893
0.75811255 -0.0345985 -1.3870749
0.76460624 -0.035823002 -1.3877375
0.76050001 -0.02871 -1.3895
0.76359999 -0.090617001 -1.3774
0.75712377 -0.083838008 -1.3771374
0.76304835 -0.0853175 -1.3777167
0.72968 -0.070129998 -1.3799
0.73184001 -0.070056997 -1.3785
0.74580801 -0.071614005 -1.37766
0.75597954 -0.075089447 -1.37615
0.762205 -0.077556752 -1.3773751
0.72802001 -0.068627 -1.3775001
0.73703998 -0.065218002 -1.3794501
0.74554288 -0.064936928 -1.3770572
0.75637525 -0.064558297 -1.3755
0.76105165 -0.066695504 -1.3758501
0.73944002 -0.054644 -1.3765
0.74531001 -0.057096332 -1.3787999
0.75583124 -0.054546248 -1.3761625
0.7617383 -0.056582 -1.3780667
0.74589002 -0.046211001 -1.3724
0.75511003 -0.044964999 -1.3765999
0.76284003 -0.043640662 -1.3786
0.75459999 -0.080471002 -1.3697
0.75731999 -0.073569 -1.3694
0.75731999 -0.061461002 -1.37
