ply
format ascii 1.0
comment PCL generated
element vertex 1524
property float x
property float y
property float z
element camera 0
property float view_px
property float view_py
property float view_pz
property float x_axisx
property float x_axisy
property float x_axisz
property float y_axisx
property float y_axisy
property float y_axisz
property float z_axisx
property float z_axisy
property float z_axisz
property float focal
property float scalex
property float scaley
property float centerx
property float centery
property int viewportx
property int viewporty
property float k1
property float k2
end_header
1.8107278 0.060678437 -1.3433359
1.5904088 0.29700083 -1.3259758
1.4395763 0.042865433 -1.3155475
1.2857624 0.24542493 -1.3240128
1.1632191 0.030410048 -1.3044385
1.0379469 0.20279601 -1.3043449
0.98329592 0.022985497 -1.2915001
22.117123 3.8694913 5.9817753
23.077087 0.92100471 5.3366666
22.081594 3.8355045 4.317296
23.01597 0.92659998 3.6016574
9.3510799 1.6161232 1.154205
9.9739466 0.40276414 0.95079434
9.3318167 1.6094407 0.65642852
9.9684849 0.40253869 0.4636215
9.3326406 1.6062344 0.21905187
9.9543695 0.40023163 0
9.315958 1.6000108 -0.21864699
9.664197 0.38693833 -0.44941497
9.5494614 1.6401697 -0.66832972
9.6371508 0.38249826 -0.87963754
nan nan nan
10.941422 0.4301523 -1.535942
8.2954903 1.4259447 -1.4689701
5.052176 0.19276981 -1.436888
6.412962 1.1040767 -1.4823817
4.2329245 0.15819526 -1.4448707
3.5506794 0.6190331 -1.436317
2.6500044 0.091186166 -1.3837028
3.0057838 0.52684045 -1.4041569
2.3041973 0.075622506 -1.3615828
2.0055447 0.3595176 -1.3452107
1.8089353 0.054300368 -1.3418282
1.5858327 0.29012486 -1.3211597
1.4397236 0.037588838 -1.3155475
1.283205 0.2402892 -1.32041
1.1600517 0.026080767 -1.3006575
1.0356549 0.19840065 -1.3004102
0.97893405 0.019306993 -1.2854557
22.154966 3.7924802 5.9882207
23.114388 0.83764851 5.3445578
22.085825 3.7528996 4.315402
23.051302 0.84340715 3.6066859
9.3618336 1.5826676 1.1548109
10.0052 0.36729428 0.95364898
9.3450317 1.5764736 0.6569491
9.9823713 0.36645508 0.46420383
9.3288803 1.5687276 0.21881975
9.9557705 0.36374435 0
9.3094349 1.563782 -0.21835685
9.9101248 0.36034855 -0.46082792
9.6095171 1.6142616 -0.67212802
9.6684046 0.34655502 -0.88237214
nan nan nan
10.878666 0.3858684 -1.5268844
8.3152285 1.3979843 -1.4715593
5.0528793 0.17336948 -1.436888
6.4337864 1.0834036 -1.4862885
4.2453146 0.14233071 -1.4489361
3.5437806 0.60444874 -1.4325838
2.6459172 0.080879107 -1.3813653
3.0099282 0.51620519 -1.4052119
2.300184 0.066654757 -1.3590112
2.0068488 0.35216454 -1.3452107
1.8051434 0.047255337 -1.3388129
1.5906574 0.28499329 -1.3243704
1.4380327 0.032023165 -1.313839
1.2858226 0.23567675 -1.3222114
1.1568719 0.021573205 -1.2968765
1.0394397 0.19500066 -1.3043449
0.97751838 0.015699517 -1.2834408
22.163303 3.7143228 5.9869318
23.131773 0.75743586 5.3479395
22.098789 3.6757829 4.315402
23.068916 0.76342666 3.6090064
9.3648529 1.5495733 1.154508
10.018799 0.33452636 0.95483834
9.3480158 1.5434368 0.65677559
10.011045 0.33251381 0.46548486
9.3463602 1.5398178 0.21910988
9.9819651 0.32981014 0
9.3195019 1.5337151 -0.2184729
9.9612417 0.32738945 -0.46315712
9.5286884 1.5681895 -0.66608524
nan nan nan
nan nan nan
10.924424 0.35121429 -1.533155
8.3052425 1.3679971 -1.4689701
5.0510235 0.15653916 -1.4362001
6.4277263 1.0604722 -1.4840561
4.2457633 0.12825195 -1.4489361
3.5480528 0.59307784 -1.4335171
2.6505892 0.072220959 -1.3837028
3.0116234 0.506221 -1.4052119
2.302536 0.059079465 -1.360297
2.0100503 0.34586233 -1.3466047
1.8092774 0.041354623 -1.3418282
1.5859327 0.27871165 -1.3195546
1.4417759 0.027568372 -1.317256
1.2831863 0.23078984 -1.3186086
1.1618413 0.018002924 -1.3025481
1.0370148 0.19116564 -1.3004102
0.98200494 0.01250126 -1.2894853
22.16358 3.6388483 5.9837089
23.158504 0.68143809 5.3535762
22.052711 3.5930002 4.3040357
23.051571 0.68633693 3.605912
9.3846378 1.5208955 1.1563256
10.037267 0.30182084 0.95650345
9.3629303 1.5140243 0.65746969
10.012092 0.29931417 0.46548486
9.3514147 1.5088156 0.21910988
10.007994 0.29744428 0
9.3122005 1.5008107 -0.21818277
9.9772491 0.29479429 -0.46385583
9.568306 1.542147 -0.66850233
nan nan nan
12.326879 1.9874502 -1.4472585
10.888411 0.31392294 -1.5279295
8.3097334 1.3404484 -1.4689701
5.0683336 0.14024654 -1.441015
6.445641 1.041489 -1.4874048
4.236712 0.11392259 -1.4456837
3.5431345 0.58017957 -1.4307173
2.6375575 0.063125432 -1.3766906
3.015522 0.49660158 -1.4062669
2.2941449 0.051261056 -1.355154
2.0111861 0.33919483 -1.3466047
1.8074107 0.035318419 -1.3403205
1.5925124 0.27443746 -1.3243704
1.4400344 0.022761635 -1.3155475
1.2890638 0.22744894 -1.3240128
1.1635303 0.014166008 -1.3044385
1.0406773 0.18828423 -1.3043449
0.98056096 0.0092351874 -1.2874705
22.114759 3.5476356 5.9669514
23.192501 0.59736568 5.3609037
21.905741 3.4866652 4.2727785
23.118126 0.6035139 3.6159682
9.3925991 1.4868776 1.1566286
10.040838 0.26334304 0.95674127
9.3708801 1.4800869 0.65764314
10.013122 0.26261598 0.46548486
9.3620777 1.4736763 0.21922594
10.001518 0.26056743 0
9.3080177 1.463488 -0.21795066
9.985754 0.25841001 -0.46420527
9.5569115 1.5026801 -0.66729379
nan nan nan
12.307435 1.9358543 -1.4440835
10.872212 0.2716828 -1.525491
8.3148193 1.3085314 -1.4689701
5.0784464 0.12100938 -1.4437665
6.4519997 1.0171123 -1.487963
4.2465725 0.097866885 -1.4489361
3.5499158 0.56730592 -1.4325838
2.6421998 0.053082351 -1.3790281
3.0196438 0.48538071 -1.4073219
2.2986124 0.042526651 -1.3577255
2.0083792 0.33078989 -1.3438166
1.807533 0.028378218 -1.3403205
1.5878866 0.26735586 -1.3195546
1.4419392 0.016998956 -1.317256
1.2848048 0.22160172 -1.3186086
1.1668496 0.0095140422 -1.3082196
1.0383884 0.18355887 -1.3004102
0.98206919 0.0054739201 -1.2894853
22.088829 3.4644268 5.9566393
23.213923 0.51683688 5.3654127
21.464207 3.3395569 4.184216
23.169477 0.52392501 3.6237037
9.4345169 1.4597832 1.1611726
nan nan nan
9.3907776 1.4496541 0.65868431
10.038945 0.22822431 0.46664947
9.3767929 1.4441468 0.21945806
nan nan nan
9.3007193 1.4290872 -0.21766052
10.019051 0.22427724 -0.46571919
9.5473089 1.4670348 -0.66625792
nan nan nan
12.14231 1.8664379 -1.4238783
10.833451 0.23477745 -1.5199171
8.3217697 1.2798742 -1.4694016
5.0956407 0.10450565 -1.4485812
6.4506941 0.9938404 -1.4868467
4.235055 0.083557285 -1.4448707
3.5472922 0.55419177 -1.4307173
2.6467807 0.044390406 -1.3813653
3.0213196 0.47483727 -1.4073219
2.2944531 0.034843329 -1.355154
2.0177152 0.3251088 -1.3493927
1.8076172 0.022384066 -1.3403205
1.5944813 0.26275647 -1.3243704
1.4346874 0.0121688 -1.3104219
1.2906584 0.21821885 -1.3240128
1.1685104 0.0056485748 -1.31011
1.0374721 0.1798463 -1.2984428
0.98504245 0.0020431089 -1.293515
22.212408 3.4083893 5.9869318
23.242296 0.44035894 5.371613
22.147371 3.3707428 4.315402
23.185907 0.44737396 3.6260245
9.3877811 1.4206785 1.1548109
23.172544 0.45115104 2.2120183
9.3116913 1.4058253 0.65278459
23.187929 0.44739452 1.0799202
9.2703199 1.3962648 0.21684684
23.140682 0.44244701 0
9.1717052 1.3797489 -0.21452704
nan nan nan
9.5346069 1.4344323 -0.66504937
16.25676 0.30296099 -1.485129
11.605437 1.7465008 -1.3600881
10.809419 0.19840182 -1.5164335
8.3087053 1.2511528 -1.4663808
5.1055717 0.087768406 -1.4513327
6.4610133 0.97466332 -1.4885211
4.2447639 0.069663063 -1.448123
3.5467231 0.54269242 -1.4297841
2.6447031 0.035585348 -1.3801967
3.0205567 0.46499646 -1.4062669
2.3031316 0.027327256 -1.360297
2.0146279 0.31811553 -1.3466047
1.8056875 0.016374355 -1.3388129
1.595299 0.25774595 -1.3243704
1.4347186 0.0076615447 -1.3104219
1.2879559 0.21336307 -1.32041
1.1587073 0.0019842624 -1.2987671
1.0349922 0.17605938 -1.2945082
0.98060393 -0.0010336742 -1.2874705
22.271946 3.3379989 5.9998217
23.255871 0.35941255 5.3744311
22.275549 3.3107483 4.3381348
23.219431 0.36694163 3.6310525
9.3116741 1.3759091 1.1448139
23.276064 0.36781913 2.2217712
9.4719772 1.3962654 0.66371644
23.129425 0.36550939 1.0771252
9.4630575 1.3915794 0.22125688
23.129589 0.36147413 0
9.1989565 1.3493943 -0.21504928
23.059635 0.35636175 -1.0738677
9.4879827 1.3918617 -0.66142368
16.319952 0.24714661 -1.4908261
11.484001 1.6851785 -1.3450787
10.755589 0.15987025 -1.5087694
8.3302879 1.2232006 -1.4694016
5.1010404 0.069882341 -1.4499569
6.4548984 0.94955367 -1.4862885
4.2473454 0.054874938 -1.4489361
3.5418079 0.52865744 -1.4269842
2.6381817 0.02629322 -1.3766906
3.0267229 0.45459947 -1.4083768
2.2924929 0.019209078 -1.3538684
2.0198815 0.31136724 -1.3493927
1.8057337 0.010071229 -1.3388129
1.6000179 0.2525014 -1.3275809
1.4310868 0.0024034278 -1.3070049
1.2904032 0.20914729 -1.3222114
1.1619785 -0.0022769009 -1.3025481
1.0401932 0.17303813 -1.3004102
0.98355353 -0.0046504922 -1.2915001
22.30793 3.2598407 6.0062671
23.288691 0.27454334 5.3817587
22.246235 3.2230942 4.3300834
23.274952 0.28249004 3.6395617
9.5106888 1.3697664 1.1687461
23.249884 0.28217599 2.2191546
9.4745626 1.3611842 0.66354287
23.230494 0.28193632 1.0817835
9.4881239 1.3580719 0.2217211
23.188253 0.2773799 0
9.2013664 1.315315 -0.21499127
23.105734 0.27236113 -1.075964
9.4214239 1.3468237 -0.65641683
16.251076 0.18370217 -1.4844453
11.404064 1.6307547 -1.3349762
10.70909 0.11806169 -1.5021505
8.3225279 1.1909127 -1.4672439
5.1108847 0.050385885 -1.4527082
6.4583354 0.92588884 -1.4862885
4.2498884 0.038586158 -1.4497492
3.5414267 0.51533687 -1.4260509
2.6426833 0.016186306 -1.3790281
3.0193994 0.44218162 -1.4041569
2.301126 0.010436354 -1.3590112
2.0189576 0.30365053 -1.3479987
1.805759 0.0031376525 -1.3388129
1.593358 0.24545461 -1.3211597
1.4310855 -0.0030915556 -1.3070049
1.2929084 0.20446573 -1.3240128
1.163597 -0.0067519685 -1.3044385
1.0362844 0.16828698 -1.2945082
0.98500985 -0.0082721543 -1.293515
22.316782 3.1816106 6.0056229
23.304123 0.19336887 5.3851409
22.286514 3.1495454 4.3357663
23.270857 0.20120133 3.638788
9.5227861 1.3375969 1.1696551
23.273123 0.20120852 2.2212956
9.4965429 1.33053 0.66475749
23.248816 0.20099455 1.0825988
9.5148506 1.3297194 0.22224334
23.151581 0.19612196 0
9.1811485 1.2797315 -0.21441101
23.139008 0.19197778 -1.0774778
9.4433584 1.3163432 -0.65762538
16.171932 0.12918493 -1.4771531
11.316229 1.5778857 -1.3240077
10.714373 0.082585573 -1.5028473
8.329073 1.1621956 -1.4676753
5.1062169 0.033407941 -1.4513327
6.4639416 0.90367776 -1.4868467
4.245265 0.024468048 -1.448123
3.5363157 0.50198907 -1.423251
2.6405125 0.0074185198 -1.3778594
3.0276549 0.43260676 -1.4073219
2.29686 0.0028047387 -1.3564398
2.0302694 0.29812238 -1.3549687
1.7997767 -0.0028329745 -1.3342898
1.5998893 0.240757 -1.3259758
1.4328923 -0.0078505669 -1.3087134
1.2901545 0.19963901 -1.32041
1.1635681 -0.010610557 -1.3044385
1.0383593 0.16509649 -1.2964755
0.98201519 -0.011666518 -1.2894853
22.327209 3.1075878 6.0056229
23.328991 0.11620757 5.3907771
22.35763 3.0840156 4.3476062
23.315855 0.12426408 3.64575
9.5419188 1.3080367 1.1714727
23.251245 0.12797181 2.2191546
9.515729 1.301062 0.66579866
23.216887 0.1237276 1.0810847
9.5068283 1.2964683 0.22195321
23.184605 0.11951196 0
9.2371283 1.2579777 -0.21562958
23.144514 0.11526945 -1.0777109
9.5784178 1.3045404 -0.66677582
16.149864 0.075454503 -1.4751019
11.136595 1.5171471 -1.3023595
10.7641 0.047262393 -1.5098146
8.3253641 1.1350232 -1.4663808
5.1159139 0.016501781 -1.4540839
6.4667487 0.88336629 -1.4868467
4.2500515 0.010399186 -1.4497492
3.5263906 0.48927504 -1.4185847
2.6427326 -0.001341227 -1.3790281
3.0222654 0.42214668 -1.4041569
2.3054328 -0.0048391991 -1.3615828
2.0229805 0.29055145 -1.3493927
1.8057401 -0.0088388249 -1.3388129
1.5968466 0.23516437 -1.3227651
1.4401606 -0.012428532 -1.3155475
1.2873826 0.19483277 -1.3168073
1.1668005 -0.014313921 -1.3082196
1.0373496 0.16159147 -1.2945082
0.98493332 -0.014804758 -1.293515
22.374355 3.0306008 6.0152903
23.360922 0.030740457 5.3981047
22.383379 3.0040109 4.3504481
23.343321 0.038849048 3.6500044
9.551569 1.2737123 1.1720785
23.321247 0.038802177 2.2258153
9.5204334 1.2661762 0.66579866
23.277122 0.038726769 1.0838798
9.5365114 1.2632434 0.22253348
23.204887 0.034563266 0
9.2270241 1.2205302 -0.2152814
23.152269 0.030442858 -1.0780602
9.6921415 1.2821709 -0.67437243
16.100245 0.0134083 -1.4705443
11.063562 1.4639336 -1.2931229
10.764202 0.0059309667 -1.5098146
8.3247776 1.1023998 -1.4655176
5.1135354 -0.0031401864 -1.4533961
6.5087423 0.86367255 -1.4957767
4.2453318 -0.0059113898 -1.448123
3.5305417 0.47604266 -1.419518
2.6427078 -0.011488556 -1.3790281
3.0193729 0.40992531 -1.402047
2.2946773 -0.013616527 -1.355154
2.0261364 0.28307158 -1.3507867
1.8017044 -0.015731912 -1.3357975
1.6034276 0.22985721 -1.3275809
1.4327996 -0.01810384 -1.3087134
1.2864068 0.18963133 -1.3150059
1.1585556 -0.018844889 -1.2987671
1.0395142 0.15766197 -1.2964755
0.98190981 -0.018521938 -1.2894853
22.394377 2.9537458 6.0178685
23.424215 -0.050951522 5.4127598
22.383991 2.924587 4.3485537
23.370483 -0.04269002 3.654259
9.546113 1.2390831 1.1708667
23.333681 -0.042631552 2.2270045
9.5272684 1.2332568 0.66597211
23.312077 -0.042596169 1.0855103
9.513381 1.2280855 0.22189517
23.289865 -0.046618391 0
9.2361851 1.1889538 -0.21539746
23.207176 -0.050495639 -1.0806223
9.7534494 1.2556696 -0.67834347
16.042938 -0.039834451 -1.4653028
10.997181 1.4160925 -1.2847521
10.724553 -0.029648429 -1.5042408
8.3236904 1.0727032 -1.4646546
5.1159005 -0.020107752 -1.4540839
6.5189681 0.84188652 -1.4974511
4.2429247 -0.019977005 -1.44731
3.5321817 0.46371588 -1.419518
2.644865 -0.020270929 -1.3801967
3.0185387 0.39908424 -1.400992
2.3031952 -0.021314187 -1.360297
2.0230005 0.2754319 -1.3479987
1.7996483 -0.021679692 -1.3342898
1.5966299 0.22318393 -1.3211597
1.4400308 -0.022985032 -1.3155475
1.2921742 0.18611784 -1.32041
1.1650287 -0.022830581 -1.306329
1.0415566 0.1544449 -1.2984428
0.98331881 -0.021986783 -1.2915001
22.416027 2.8810081 6.021091
23.404432 -0.12851991 5.4082503
22.425224 2.8543758 4.3547106
23.355394 -0.1201115 3.6519384
9.5526314 1.2077322 1.1711698
23.333431 -0.11593614 2.2270045
9.5238829 1.2007189 0.66545159
23.304317 -0.11986234 1.0851609
9.5050039 1.1949693 0.22160505
23.274582 -0.12376896 0
9.2398748 1.1599317 -0.21539746
23.219366 -0.12752286 -1.0812045
9.8291073 1.2340494 -0.68335027
16.060146 -0.09313795 -1.4668981
10.986793 1.3796774 -1.2830204
10.736773 -0.065289937 -1.5059825
8.3196907 1.0456251 -1.46336
5.1037889 -0.036980294 -1.4506449
6.5457573 0.82445681 -1.5030323
4.235743 -0.033986293 -1.4448707
3.5313208 0.45232067 -1.4185847
2.6425734 -0.029015278 -1.3790281
3.0130348 0.38872349 -1.3978271
2.3009679 -0.028922552 -1.3590112
2.0217988 0.26879883 -1.3466047
1.7995665 -0.027647419 -1.3342898
1.5973231 0.21816687 -1.3211597
1.4399514 -0.027508901 -1.3155475
1.2927843 0.18183182 -1.32041
1.1633159 -0.026449399 -1.3044385
1.0435625 0.15139815 -1.3004102
0.98028588 -0.024991656 -1.2874705
22.449915 2.8057423 6.0275364
23.464727 -0.21076846 5.4223418
22.439922 2.7766831 4.3556576
23.431396 -0.20230448 3.6639285
9.5444746 1.1728635 1.1696551
23.382624 -0.20189102 2.2317622
9.5329666 1.1680748 0.66579866
23.321238 -0.20136142 1.0859761
9.5167618 1.1610336 0.22177912
23.281509 -0.20507841 0
9.2812786 1.130601 -0.21626787
23.221275 -0.20860156 -1.081321
9.7370138 1.1862292 -0.67661691
16.044758 -0.15185732 -1.4655308
11.004101 1.3409041 -1.2844635
10.699329 -0.10427232 -1.500757
8.3234663 1.0151248 -1.46336
5.1084251 -0.055740893 -1.4520204
6.5680857 0.80283237 -1.5074973
4.2403178 -0.049568594 -1.4464968
3.5283523 0.4387989 -1.416718
2.6424494 -0.038700599 -1.3790281
3.0076931 0.37682652 -1.3946623
2.2944152 -0.037244696 -1.355154
2.0207126 0.26111802 -1.3452107
1.799453 -0.034242976 -1.3342898
1.5924139 0.21154355 -1.3163439
1.4416599 -0.033082932 -1.317256
1.295159 0.17733145 -1.3222114
1.1648409 -0.030963395 -1.306329
1.044136 0.14739005 -1.3004102
0.97722924 -0.028489372 -1.2834408
22.474434 2.7251863 6.0314031
23.514944 -0.29742125 5.4341784
22.46701 2.6964674 4.358973
23.440378 -0.28830594 3.6654756
9.5289965 1.1355193 1.1672314
23.438961 -0.28830054 2.2372332
9.5124207 1.1301783 0.66406345
23.402744 -0.28785783 1.0898192
9.4713154 1.1202613 0.22061859
23.338097 -0.29113057 0
9.300252 1.0983384 -0.21661602
23.282784 -0.2945058 -1.0842324
9.7561569 1.1522921 -0.67765284
16.014223 -0.21026701 -1.4627961
11.028669 1.3028979 -1.2867727
10.758285 -0.14429544 -1.5091178
8.3271313 0.98461103 -1.46336
5.1057839 -0.074427761 -1.4513327
6.5806632 0.77990443 -1.5097299
4.2401075 -0.065109812 -1.4464968
3.5299368 0.42586389 -1.416718
2.6422899 -0.048385397 -1.3790281
3.0135539 0.36635116 -1.3967721
2.2921197 -0.045608994 -1.3538684
2.0257738 0.25423235 -1.3479987
1.797322 -0.040790047 -1.3327823
1.6026801 0.2069498 -1.3243704
1.4397045 -0.038314741 -1.3155475
1.2906469 0.17188466 -1.3168073
1.1614497 -0.035125781 -1.3025481
1.0446693 0.14356211 -1.3004102
0.98155552 -0.032229733 -1.2894853
22.500605 2.6486981 6.0359154
23.387125 -0.3774462 5.4048686
22.476286 2.6180265 4.358973
23.330564 -0.36840037 3.6484573
9.4219732 1.0893955 1.1535991
23.298466 -0.3679027 2.2239122
9.4618025 1.0906701 0.66024601
23.276749 -0.36756384 1.0839963
9.5593977 1.09857 0.22259152
23.221952 -0.37074745 0
9.3834858 1.0749909 -0.2184729
23.201712 -0.37447295 -1.0805058
9.7625971 1.1185143 -0.67782545
15.981077 -0.26283434 -1.4598336
11.030684 1.2641096 -1.2864841
10.812202 -0.18089242 -1.5167819
8.3182859 0.95413131 -1.4612024
5.1055088 -0.091358736 -1.4513327
6.6002913 0.7588836 -1.5136367
4.244596 -0.079260916 -1.448123
3.5290985 0.41326818 -1.4157848
2.6399055 -0.057097532 -1.3778594
3.0080621 0.35502693 -1.3936074
2.2919557 -0.053209689 -1.3538684
2.0184102 0.24614358 -1.3424228
1.8031572 -0.04691387 -1.3373052
1.5976893 0.20062758 -1.3195546
1.4377453 -0.043030798 -1.313839
1.2929282 0.16783094 -1.3186086
1.1613268 -0.038977098 -1.3025481
1.0405549 0.13946821 -1.2945082
0.97847921 -0.035539594 -1.2854557
22.535662 2.5770903 6.0430045
23.329735 -0.45390365 5.3919044
22.506796 2.5459638 4.363235
23.089682 -0.44116595 3.6109405
9.6154165 1.079511 1.1769255
23.346958 -0.44204184 2.2286696
9.5892897 1.0731877 0.66892201
23.257925 -0.44441468 1.083181
9.5778904 1.0685301 0.22293967
23.170607 -0.4467836 0
9.4538813 1.0529935 -0.22003964
23.250277 -0.45238677 -1.082835
9.7834129 1.0897757 -0.67903399
15.942781 -0.31508505 -1.4564154
11.088895 1.2355108 -1.2928342
10.791742 -0.21634503 -1.5139949
8.3236895 0.92826754 -1.4616338
5.1051779 -0.10828871 -1.4513327
6.6220174 0.74031758 -1.5181017
4.232492 -0.093069956 -1.4440576
3.5257709 0.40165082 -1.4139183
2.6374922 -0.065794379 -1.3766906
3.0136654 0.34609607 -1.3957173
2.2896235 -0.060750671 -1.3525826
2.0274153 0.24079143 -1.3479987
1.797012 -0.052709356 -1.3327823
1.6021155 0.19607973 -1.3227651
1.4376032 -0.047547393 -1.313839
1.2986357 0.16420694 -1.3240128
1.1546601 -0.042369552 -1.2949861
1.0425167 0.13640332 -1.2964755
0.97836274 -0.038613398 -1.2854557
22.573328 2.5016062 6.0507388
22.904322 -0.52557415 5.293829
22.527746 2.4687231 4.365603
22.759588 -0.51430857 3.559499
9.6363964 1.0478224 1.1790462
22.857529 -0.51654339 2.1820457
9.5657024 1.0367454 0.66701329
23.141386 -0.52299106 1.077824
9.6014404 1.037243 0.22340389
23.176403 -0.52783287 0
9.4825277 1.0210183 -0.22061993
23.318462 -0.53515345 -1.0860958
9.7898216 1.0541779 -0.67920667
15.92914 -0.37044275 -1.4552759
11.16001 1.2020543 -1.3006276
10.763697 -0.2533676 -1.5101629
8.3074503 0.89563614 -1.4581815
5.0903521 -0.12574604 -1.4472055
6.6271081 0.71630448 -1.5186598
4.2345047 -0.10790502 -1.4448707
3.5249143 0.38846979 -1.412985
2.6416647 -0.075130127 -1.3790281
3.0036516 0.33378685 -1.3904424
2.2936835 -0.068875782 -1.355154
2.0262227 0.23311897 -1.3466047
1.8008029 -0.059118181 -1.3357975
1.6009206 0.18997711 -1.3211597
1.4392428 -0.052886527 -1.3155475
1.2923207 0.15881099 -1.3168073
1.1577657 -0.046741169 -1.2987671
1.0445395 0.13278064 -1.2984428
0.97377932 -0.041994505 -1.2794112
22.587151 2.4193692 6.0520282
nan nan nan
22.561056 2.3887255 4.3703389
nan nan nan
9.6623831 1.0148348 1.1817726
22.64402 -0.59474266 2.1618261
9.6339283 1.0084451 0.67152488
22.540174 -0.59201133 1.0498739
9.6401529 1.0040017 0.22421627
22.44207 -0.59334487 0
9.575695 0.99558306 -0.2227089
23.029261 -0.61295438 -1.0727031
9.7613716 1.0149286 -0.6769622
15.870361 -0.43004453 -1.4500346
11.196449 1.1644894 -1.3043799
10.735423 -0.29394442 -1.5063308
8.3057795 0.86467052 -1.4573184
5.0826244 -0.14508176 -1.4451421
6.6224189 0.69124848 -1.5169855
4.2316961 -0.12409297 -1.4440576
3.5263143 0.37554774 -1.412985
2.6325214 -0.084979706 -1.3743533
3.0138681 0.32375163 -1.3946623
2.2976878 -0.077832013 -1.3577255
2.0332503 0.22638816 -1.3507867
1.7925917 -0.065728888 -1.3297669
1.607317 0.18477499 -1.3259758
1.4390292 -0.058412421 -1.3155475
1.294642 0.15405653 -1.3186086
1.1592119 -0.05126252 -1.3006575
1.0496327 0.12934893 -1.3043449
0.97657526 -0.045710478 -1.2834408
22.631088 2.3481975 6.0616956
23.569592 -0.70556641 5.4488335
22.593269 2.3164034 4.3750749
23.518307 -0.6958279 3.6790128
9.6731014 0.98354244 1.1826816
23.343536 -0.68657535 2.2289076
9.6669931 0.97951674 0.67360711
nan nan nan
9.6581802 0.97522175 0.22456443
nan nan nan
9.6285095 0.97052068 -0.22386944
22.330671 -0.66839981 -1.0402111
nan nan nan
15.881374 -0.48027849 -1.4511741
11.158051 1.1250647 -1.299473
10.689907 -0.32630062 -1.5000603
8.2937546 0.83708489 -1.4547291
5.0725346 -0.16073984 -1.4423907
6.6415286 0.67216402 -1.5208924
4.2218342 -0.13707471 -1.4408052
3.5228631 0.36398765 -1.4111184
2.6344502 -0.093329802 -1.375522
3.0193787 0.31475556 -1.3967721
2.3038597 -0.085294694 -1.3615828
2.0360146 0.22022533 -1.3521807
1.7963616 -0.071524382 -1.3327823
1.6021765 0.17907567 -1.3211597
1.4388496 -0.062681839 -1.3155475
1.2865119 0.14897129 -1.3096018
1.1574208 -0.054620683 -1.2987671
1.04695 0.12585644 -1.3004102
0.97494876 -0.048700016 -1.281426
22.617514 2.2670155 6.0558953
23.659487 -0.79093629 5.470252
22.613434 2.2387347 4.3774433
23.634224 -0.78184855 3.6975782
9.7357464 0.95560354 1.189952
23.58213 -0.78013265 2.2519817
9.6778002 0.94649673 0.67412764
23.541475 -0.77879006 1.0968068
9.7038126 0.94563383 0.22555088
23.414469 -0.77866793 0
9.6742916 0.93934059 -0.22485591
23.216736 -0.77613056 -1.0816704
10.852818 1.0540595 -0.75241041
15.869649 -0.53537476 -1.4502625
11.139856 1.0819955 -1.2968752
10.678806 -0.36327469 -1.4986669
8.2918653 0.80620313 -1.453866
5.0743446 -0.17853089 -1.4430785
6.6463728 0.64805454 -1.5214505
4.2284174 -0.15206949 -1.4432445
3.5334044 0.35199949 -1.4148515
2.6341083 -0.10252517 -1.375522
3.0227668 0.30391553 -1.3978271
2.2906945 -0.092801929 -1.3538684
2.0285528 0.21188803 -1.3466047
1.788132 -0.077438138 -1.3267516
1.6028221 0.17320219 -1.3211597
1.4313185 -0.067597173 -1.3087134
1.2939129 0.14526936 -1.3168073
1.1637471 -0.059210643 -1.306329
1.0504675 0.1223847 -1.3043449
0.97476375 -0.052273054 -1.281426
22.676161 2.1889822 6.0694299
23.683203 -0.87864304 5.4764524
22.65081 2.1586347 4.3831258
23.621326 -0.86810333 3.6960309
9.7243605 0.91851002 1.1881343
23.613932 -0.86784309 2.255312
9.6936178 0.91219074 0.67499524
23.553436 -0.86562037 1.0975055
9.7347441 0.9109351 0.22618918
23.548862 -0.86956757 0
9.6776686 0.90387619 -0.22485591
23.448318 -0.86994976 -1.0926175
nan nan nan
15.596302 -0.58607793 -1.425423
11.161053 1.0427793 -1.2988957
10.664964 -0.40380475 -1.496925
8.2776031 0.77419633 -1.4508452
5.0856295 -0.19848751 -1.4465177
6.646277 0.62346143 -1.5208924
4.220716 -0.16801842 -1.4408052
3.5254364 0.33815417 -1.4111184
2.6381111 -0.11283146 -1.3778594
3.0261161 0.29305488 -1.398882
2.294605 -0.10179138 -1.3564398
2.0355096 0.205084 -1.3507867
1.7937969 -0.084593631 -1.3312745
1.6110694 0.1681357 -1.3275809
1.4310485 -0.073092528 -1.3087134
1.2927382 0.14010921 -1.3150059
1.1635112 -0.063678667 -1.306329
1.047865 0.11799571 -1.3004102
0.97013372 -0.055578202 -1.2753816
22.702904 2.1116061 6.0745864
23.716494 -0.96279287 5.4849072
22.680204 2.0815771 4.3873887
23.669977 -0.9526425 3.7041533
9.7250366 0.88433474 1.1878315
23.615728 -0.95046639 2.2557876
9.7240658 0.88082981 0.67690396
23.592688 -0.949543 1.0994853
9.7277546 0.87774771 0.22595707
23.528198 -0.95105463 0
9.708147 0.87255728 -0.22549422
23.465101 -0.9526006 -1.0935493
nan nan nan
15.584323 -0.63738561 -1.4245114
11.184411 1.005597 -1.3012048
10.611622 -0.43701896 -1.4896094
8.3023262 0.74729061 -1.4547291
5.0825424 -0.21524821 -1.44583
6.6581206 0.60113788 -1.5231248
4.2248592 -0.18222013 -1.4424313
3.5219769 0.32541597 -1.4092518
2.6222692 -0.12085307 -1.3696786
3.0248642 0.28227746 -1.3978271
2.2985377 -0.10960872 -1.3590112
2.027952 0.19716312 -1.3452107
1.7895234 -0.090334959 -1.3282591
1.6097401 0.16231535 -1.3259758
1.4307981 -0.077837653 -1.3087134
1.291472 0.13563648 -1.3132045
1.1649264 -0.06763538 -1.3082196
1.0528494 0.11503687 -1.3063122
0.97288775 -0.0591527 -1.2794112
22.741058 2.0391169 6.0829649
23.781301 -1.0444328 5.5006895
22.696764 2.0072212 4.3892832
23.733313 -1.0340385 3.7145963
9.7378044 0.85294908 1.1890433
23.709593 -1.0288693 2.265065
9.7169933 0.8477093 0.67620987
23.611868 -1.0287545 1.1005334
9.7306118 0.84548444 0.22595707
23.544897 -1.0299476 0
9.7183094 0.84270346 -0.2256683
23.459318 -1.0302985 -1.0934328
nan nan nan
15.59456 -0.68961322 -1.4256508
11.194937 0.97110063 -1.3020709
10.595278 -0.47154257 -1.4875193
8.2948217 0.72034937 -1.4530029
5.1058102 -0.23320842 -1.4527082
6.657548 0.58000541 -1.5225667
4.2147856 -0.19578545 -1.4391789
3.5114322 0.31331083 -1.4045854
2.6218541 -0.12954816 -1.3696786
3.0189645 0.27215689 -1.3946623
2.2938795 -0.11700743 -1.3564398
2.0285614 0.19079116 -1.3452107
1.7951877 -0.096598536 -1.3327823
1.6045207 0.15668835 -1.3211597
1.4360124 -0.082656972 -1.313839
1.2901906 0.13117364 -1.3114032
1.158178 -0.070879333 -1.3006575
1.0440048 0.11072428 -1.2945082
0.97712731 -0.062505409 -1.2854557
22.726377 1.9578551 6.0771642
23.789679 -1.1280166 5.5035081
22.732983 1.9304782 4.3949656
23.729559 -1.1168771 3.7145963
9.755559 0.82020372 1.1908609
23.68329 -1.1147071 2.262924
9.7422609 0.81566375 0.67777157
23.64056 -1.1126981 1.1020473
9.7459564 0.81255442 0.22624721
23.613577 -1.1155562 0
9.7337866 0.80811542 -0.22595842
23.532906 -1.1158544 -1.0970429
nan nan nan
15.708935 -0.74963778 -1.4363616
11.198422 0.93006259 -1.3020709
10.591093 -0.50840485 -1.4871708
8.3023138 0.69035202 -1.453866
5.1241689 -0.2519823 -1.4582109
6.6596298 0.5556004 -1.5225667
4.2211599 -0.2108542 -1.4416183
3.512557 0.3004387 -1.4045854
2.6125584 -0.13822436 -1.3650039
3.0244577 0.26148435 -1.3967721
2.2870347 -0.12465703 -1.3525826
2.0354466 0.18392341 -1.3493927
1.788867 -0.10251368 -1.3282591
1.6088998 0.15117182 -1.3243704
1.4338782 -0.08780475 -1.3121305
1.295815 0.12718937 -1.3168073
1.1530139 -0.07479427 -1.2949861
1.0490057 0.1073824 -1.3004102
0.97836798 -0.066190608 -1.2874705
22.767105 1.8773283 6.0861878
23.790247 -1.2154515 5.5046349
22.747244 1.8477417 4.3963866
23.777105 -1.2064759 3.7227185
9.7510786 0.78384393 1.189952
23.701624 -1.1985039 2.265065
9.7377272 0.77935237 0.67725098
23.656275 -1.200352 1.1029791
9.738905 0.77603179 0.22601511
23.626808 -1.2029883 0
9.7066517 0.77174878 -0.22526211
23.538637 -1.2026099 -1.0975088
nan nan nan
15.800561 -0.81207764 -1.4450212
nan nan nan
10.552074 -0.54529577 -1.4819454
8.3046722 0.66136736 -1.453866
5.1472125 -0.27204046 -1.4650893
6.6688161 0.53293568 -1.5242411
4.2156372 -0.22606841 -1.4399921
3.50665 0.28760201 -1.4017856
2.6142409 -0.14792578 -1.3661727
3.0208349 0.25054687 -1.3946623
2.2887027 -0.13316537 -1.3538684
2.0319419 0.17645264 -1.3466047
1.7904696 -0.10919368 -1.3297669
1.6094177 0.14555478 -1.3243704
1.4390261 -0.093173206 -1.317256
1.2945471 0.12227206 -1.3150059
1.1543775 -0.078934118 -1.2968765
1.0478395 0.10356361 -1.2984428
0.97370303 -0.069277063 -1.281426
22.794876 1.8035363 6.0919881
23.817703 -1.2960595 5.5119629
22.777721 1.7742079 4.401123
23.79517 -1.2865189 3.7261994
9.7684708 0.75265139 1.1917697
23.729826 -1.2788385 2.2681572
9.7477179 0.7476306 0.67777157
23.694555 -1.2810882 1.1049588
9.7414246 0.74373215 0.22601511
23.64765 -1.2826874 0
9.6643 0.73612821 -0.22421761
23.569429 -1.2825631 -1.0991392
nan nan nan
15.902186 -0.87019724 -1.4545923
13.58894 1.0360341 -1.5800345
10.550208 -0.58028471 -1.4819454
8.3117304 0.63420051 -1.4547291
5.1582808 -0.28978699 -1.4685285
6.6705465 0.51081812 -1.5242411
4.2148647 -0.24004672 -1.4399921
3.5168328 0.27670628 -1.4055188
2.6115298 -0.15645994 -1.3650039
3.0239084 0.24070984 -1.3957173
2.2861087 -0.14062038 -1.3525826
2.0325158 0.1697135 -1.3466047
1.786118 -0.11486895 -1.3267516
1.6079825 0.14004727 -1.3227651
1.4368886 -0.097817354 -1.3155475
1.3018492 0.11862384 -1.3222114
1.1508466 -0.082519852 -1.2930956
1.0481772 0.10008828 -1.2984428
0.97051674 -0.072276965 -1.2773963
22.822708 1.7255979 6.0977888
23.844645 -1.3810246 5.51929
22.803358 1.6961467 4.4049115
23.842316 -1.3725575 3.7343216
9.7611389 0.71781796 1.190558
23.75976 -1.3678097 2.2714875
9.7726536 0.71524405 0.67933321
23.732321 -1.3662336 1.1069386
9.7564249 0.71063453 0.22630525
23.685455 -1.367679 0
9.6245565 0.69761956 -0.22323114
23.589737 -1.3662741 -1.1003038
nan nan nan
15.849345 -0.92279994 -1.4500346
13.523297 0.98117727 -1.5719525
10.609903 -0.62073565 -1.4906546
8.3139992 0.60373223 -1.4547291
5.1740317 -0.30880049 -1.4733434
6.6675129 0.48600981 -1.5231248
4.2116413 -0.25461394 -1.4391789
3.5131979 0.26346439 -1.4036522
2.6109676 -0.16557494 -1.3650039
3.0202508 0.22927809 -1.3936074
2.2877433 -0.14874087 -1.3538684
2.0310557 0.16209494 -1.3452107
1.789685 -0.12137841 -1.3297669
1.604666 0.13382737 -1.3195546
1.4347005 -0.10294919 -1.313839
1.3005291 0.11392352 -1.32041
1.1554292 -0.087118134 -1.2987671
1.0500728 0.096391551 -1.3004102
0.97614604 -0.076312505 -1.2854557
22.847868 1.6473129 6.1029449
23.878576 -1.4666421 5.5283084
22.838524 1.6186234 4.4105945
23.85957 -1.4571315 3.7378027
9.8180456 0.68756831 1.1972227
23.774715 -1.4519539 2.2733905
9.7974815 0.68269247 0.68089491
23.767294 -1.4515059 1.108802
9.7837791 0.67830873 0.2268855
23.702999 -1.451726 0
9.6044912 0.66246587 -0.2227089
23.614737 -1.4504493 -1.1017014
nan nan nan
15.793845 -0.97489077 -1.445249
13.447365 0.92847824 -1.5627159
10.563196 -0.65500039 -1.4843839
8.3234253 0.5752188 -1.4560237
5.1657257 -0.32640156 -1.4712799
6.6691689 0.46273288 -1.5231248
4.215445 -0.26961809 -1.4408052
3.5117831 0.25103235 -1.4027189
2.6059642 -0.17438884 -1.3626666
3.0255532 0.2190652 -1.3957173
2.2850714 -0.15657687 -1.3525826
2.0295401 0.15484355 -1.3438166
1.7852726 -0.12733553 -1.3267516
1.6051233 0.12822524 -1.3195546
1.4306927 -0.10767592 -1.3104219
1.3043728 0.10968167 -1.3240128
1.1551181 -0.091150813 -1.2987671
1.0473304 0.092444822 -1.2964755
0.97587371 -0.079719432 -1.2854557
22.882397 1.5695356 6.1106791
23.895185 -1.5514072 5.5333815
22.863628 1.5402143 4.4143834
23.888845 -1.5426396 3.7432177
9.8302889 0.65395397 1.1984344
23.826622 -1.538628 2.2788618
9.8122492 0.6493153 0.68176258
23.742144 -1.5331712 1.1078702
9.7960625 0.64481187 0.22711761
23.725229 -1.5362356 0
9.5144711 0.6228717 -0.22056189
23.619499 -1.5335194 -1.1021671
nan nan nan
15.812705 -1.0314772 -1.4473
13.341495 0.87436718 -1.5500156
10.570726 -0.69251817 -1.4857773
8.3229256 0.54599917 -1.4555923
5.1717496 -0.34491423 -1.4733434
6.6780386 0.43993357 -1.5247992
4.2050447 -0.28368962 -1.4375528
3.5056968 0.23829558 -1.399919
2.6119528 -0.183956 -1.3661727
3.0217776 0.20818733 -1.3936074
2.286649 -0.1647086 -1.3538684
2.0300682 0.14775822 -1.3438166
1.7927711 -0.13417293 -1.3327823
1.6093824 0.12292024 -1.3227651
1.4357656 -0.11310938 -1.3155475
1.299565 0.10469815 -1.3186086
1.1580529 -0.095458992 -1.3025481
1.0522567 0.089193344 -1.3023776
0.97853816 -0.08338543 -1.2894853
22.904608 1.4907514 6.1151905
23.935793 -1.6379713 5.5440907
22.89826 1.4622763 4.4200664
23.910419 -1.6278657 3.7474723
9.8622322 0.62151611 1.2020698
23.870764 -1.6251744 2.2836194
9.8443241 0.61693931 0.6838448
23.846273 -1.623511 1.1129944
9.8356705 0.61295426 0.22798802
23.764616 -1.6221112 0
9.521575 0.5899666 -0.22067794
23.671303 -1.619884 -1.1048456
21.153507 1.3136288 -1.464766
15.7643 -1.0835884 -1.4431981
13.299852 0.8250159 -1.5448201
10.548487 -0.72804493 -1.4829905
8.3296967 0.51725018 -1.4564553
5.165719 -0.36262622 -1.4719677
6.679533 0.41662017 -1.5247992
4.2158184 -0.29920927 -1.4416183
3.4995639 0.22560431 -1.3971192
2.6068869 -0.19274242 -1.3638353
3.0247471 0.19778788 -1.3946623
2.2839224 -0.17252573 -1.3525826
2.036782 0.14110969 -1.3479987
1.7843401 -0.13979587 -1.3267516
1.6117129 0.1174444 -1.3243704
1.4280876 -0.1175083 -1.3087134
1.3085628 0.10084726 -1.3276155
1.1577128 -0.099500768 -1.3025481
1.0448761 0.08487165 -1.2925408
0.97824109 -0.086800657 -1.2894853
22.928961 1.4119803 6.120347
23.951794 -1.7230877 5.5491638
22.917929 1.3832264 4.4229083
23.953863 -1.7148504 3.7552075
9.8816824 0.58812302 1.2041904
23.892252 -1.7104464 2.286236
9.8713121 0.58405155 0.68558002
23.847933 -1.7072756 1.1133438
9.8626986 0.58009112 0.22856829
23.773771 -1.7061304 0
9.608408 0.5617069 -0.22265087
23.742723 -1.7080646 -1.108456
21.250088 1.2451898 -1.4711541
15.760423 -1.1386095 -1.4431981
13.260509 0.77611142 -1.5399131
10.54835 -0.76504123 -1.4833387
8.3289928 0.48802608 -1.4560237
5.1692162 -0.38101116 -1.4733434
6.6833792 0.39344579 -1.5253574
4.2194633 -0.31427711 -1.4432445
3.5049596 0.21367279 -1.3989857
2.6017916 -0.20149572 -1.361498
3.0163713 0.18666065 -1.3904424
2.2833064 -0.18049707 -1.3525826
2.0331209 0.13372116 -1.3452107
1.7818538 -0.14585803 -1.3252438
1.6102014 0.11168173 -1.3227651
1.4294868 -0.12265193 -1.3104219
1.3037213 0.095885351 -1.3222114
1.1524712 -0.10309227 -1.2968765
1.0482409 0.081472337 -1.2964755
0.97203869 -0.089653566 -1.281426
22.953272 1.329051 6.1255031
24.003603 -1.8152771 5.5626912
22.944902 1.3004712 4.4271703
23.974508 -1.8046759 3.7594621
9.9209356 0.55398524 1.2087344
23.890785 -1.7983782 2.2867117
9.9107389 0.54994923 0.68818283
23.886341 -1.7980494 1.1154401
9.8948011 0.54387027 0.2292646
23.799765 -1.7957021 0
9.5954285 0.52566254 -0.22230271
23.731321 -1.7946974 -1.108223
21.154896 1.1618141 -1.4642481
15.75097 -1.198738 -1.4427422
13.260784 0.72736764 -1.5396245
10.53793 -0.80497098 -1.4822937
8.3405609 0.45803854 -1.45775
5.165319 -0.40066975 -1.4726555
6.6896429 0.36921772 -1.5264735
4.220582 -0.33066219 -1.4440576
3.4987733 0.20042208 -1.396186
2.6032016 -0.21166547 -1.3626666
3.0125098 0.1753366 -1.3883325
2.2868695 -0.18962181 -1.355154
2.0356684 0.12639989 -1.3466047
1.7753208 -0.15217942 -1.3207209
1.6163363 0.10616636 -1.3275809
1.4308227 -0.1283062 -1.3121305
1.3075379 0.09112782 -1.3258141
1.1520668 -0.10751668 -1.2968765
1.0516223 0.077683479 -1.3004102
0.97759491 -0.093798526 -1.2894853
22.984304 1.2503673 6.1325932
24.033543 -1.9019399 5.571146
22.981169 1.2220685 4.4333272
24.012383 -1.8918475 3.7664242
9.9426346 0.52039379 1.2111579
23.983599 -1.8895893 2.2962267
9.9225607 0.51587129 0.68887693
23.899834 -1.8829883 1.1163718
9.909029 0.51170236 0.22955474
23.828245 -1.8815262 0
nan nan nan
23.749807 -1.8794965 -1.1093876
21.106516 1.0852671 -1.4606224
15.744427 -1.250766 -1.4425144
13.310362 0.68350255 -1.5451087
10.530267 -0.83951718 -1.4815969
8.3519449 0.4294304 -1.4594761
5.1591702 -0.41740665 -1.4712799
6.7054935 0.3466244 -1.5298223
4.2194629 -0.34465635 -1.4440576
3.4901884 0.18770294 -1.3924528
2.5914755 -0.21935488 -1.3568233
3.0131035 0.16481991 -1.3883325
2.2819562 -0.1968313 -1.3525826
2.0381691 0.11941749 -1.3479987
1.7748063 -0.15806577 -1.3207209
1.6186095 0.10064598 -1.3291863
1.4285724 -0.13287789 -1.3104219
1.304374 0.086553752 -1.3222114
1.1484482 -0.1110138 -1.2930956
1.0534124 0.074308999 -1.3023776
0.96989995 -0.096456133 -1.2794112
22.995562 1.1745121 6.1345263
24.061085 -1.9844333 5.5790372
23.00716 1.146956 4.4375896
24.028133 -1.9732866 3.7699053
9.9566984 0.48803046 1.2126726
23.977545 -1.9649266 2.2962267
9.9341803 0.48345134 0.68957096
23.925816 -1.9648927 1.1178857
9.9306431 0.47980976 0.23001896
23.866724 -1.9642284 0
9.9007702 0.47662717 -0.22932403
23.793221 -1.9623533 -1.1117169
nan nan nan
15.730268 -1.3021467 -1.4416028
13.42158 0.64696395 -1.5578089
10.517557 -0.87361032 -1.4802035
8.3557129 0.40330932 -1.4599075
5.1529679 -0.43410721 -1.4699041
6.7065487 0.32555678 -1.5298223
4.215941 -0.35844514 -1.4432445
3.4930768 0.17685622 -1.3933861
2.5973377 -0.22853439 -1.3603293
3.0203965 0.15570901 -1.3914974
2.2791557 -0.20420389 -1.3512969
2.0406058 0.11313146 -1.3493927
1.7762862 -0.16383274 -1.3222284
1.615092 0.095327824 -1.3259758
1.428148 -0.13736522 -1.3104219
1.3029243 0.082114749 -1.32041
1.1497213 -0.11478766 -1.2949861
1.0490243 0.070674002 -1.2964755
0.97106391 -0.099658154 -1.281426
23.0333 1.0958462 6.1435499
24.100119 -2.0723791 5.5897465
23.020832 1.0670947 4.4394841
24.067854 -2.0611567 3.7772539
9.9756927 0.45406613 1.2147932
23.962744 -2.0521579 2.2955132
9.9582291 0.44978982 0.69113266
23.961105 -2.0520236 1.1198655
9.9372511 0.44536749 0.23013502
23.894592 -2.0505226 0
9.9249229 0.44134057 -0.22984627
23.826033 -2.0488219 -1.1135801
9.6573048 0.42936921 -0.66677582
15.710744 -1.3557613 -1.4402355
13.42138 0.59765613 -1.5575203
10.50951 -0.90989006 -1.4795067
8.3669739 0.37312302 -1.4616338
5.1394501 -0.45103604 -1.466465
6.7174339 0.30141434 -1.5320548
4.2193737 -0.37357882 -1.4448707
3.4890683 0.16383134 -1.3915195
2.5855207 -0.23658255 -1.354486
3.0254748 0.14485833 -1.3936074
2.2762945 -0.21195735 -1.3500112
2.0327172 0.10521127 -1.3438166
1.7736893 -0.17014274 -1.3207209
1.6211706 0.089735523 -1.3307916
1.4294506 -0.14278348 -1.3121305
1.2997423 0.077352121 -1.3168073
1.1460394 -0.11865601 -1.291205
1.0538938 0.067136981 -1.3023776
0.97657716 -0.1038601 -1.2894853
23.046812 1.0118423 6.1461277
24.16514 -2.1672301 5.6066566
23.061375 0.98428595 4.446588
24.08474 -2.151556 3.7811215
10.002086 0.41854388 1.2178227
24.049255 -2.1483948 2.3045526
9.9647961 0.41349614 0.69147968
23.975815 -2.141834 1.1209136
9.9663572 0.4083401 0.23077331
23.931736 -2.1421025 0
9.9414549 0.40557578 -0.23019442
23.843239 -2.1383681 -1.1147448
9.628911 0.39274338 -0.66470408
15.717822 -1.4171957 -1.441375
13.354008 0.54560924 -1.5494384
10.498544 -0.94956636 -1.4784616
8.3682861 0.34245405 -1.4616338
5.1496472 -0.47186843 -1.4699041
6.7111897 0.2764881 -1.5303805
4.2155542 -0.38955852 -1.4440576
3.4803774 0.15063429 -1.3877865
2.5911932 -0.24714394 -1.3579921
3.0259857 0.13376844 -1.3936074
2.2775977 -0.22090535 -1.3512969
2.0372348 0.097965203 -1.3466047
1.778975 -0.17755443 -1.3252438
1.610006 0.083179191 -1.3211597
1.4234468 -0.14769591 -1.3070049
1.303491 0.072561689 -1.32041
1.1537056 -0.12394889 -1.3006575
1.0495253 0.062799245 -1.2964755
0.97030735 -0.10677368 -1.281426
23.083994 0.93275666 6.1551509
24.174402 -2.2531526 5.6106019
23.069574 0.9039734 4.447535
24.113972 -2.239043 3.7869232
9.9960451 0.38334045 1.2169138
24.037041 -2.2276738 2.3040767
9.9736547 0.37899587 0.69200021
24.017921 -2.230134 1.1232429
9.9776459 0.37566671 0.23100542
23.953983 -2.2284083 0
9.9527349 0.37298331 -0.23042654
23.875412 -2.2252951 -1.116608
9.6625586 0.36203256 -0.66694844
15.70312 -1.4683815 -1.4404634
13.348299 0.50104195 -1.5485723
10.478084 -0.98275381 -1.4760231
8.3792191 0.31507489 -1.46336
5.1648026 -0.49054062 -1.4747189
6.7315507 0.25497648 -1.5348455
4.218945 -0.40398878 -1.4456837
3.4715884 0.13871495 -1.3840533
2.5815628 -0.25485882 -1.3533174
3.0241477 0.12363864 -1.3925524
2.2789855 -0.2286732 -1.3525826
2.0354755 0.091113359 -1.3452107
1.7784082 -0.18314847 -1.3252438
1.6141012 0.078031689 -1.3243704
1.4211615 -0.15196966 -1.3052964
1.3019936 0.068144105 -1.3186086
1.1500595 -0.12720519 -1.2968765
1.0512573 0.059593793 -1.2984428
0.97288811 -0.11033303 -1.2854557
23.113512 0.85718983 6.162241
24.142553 -2.3309627 5.6049652
23.114149 0.82896698 4.455586
24.14575 -2.322783 3.7931118
10.024542 0.35115248 1.2202462
24.059246 -2.3102281 2.3069313
9.987319 0.34635517 0.69286788
24.032766 -2.3119223 1.1242909
9.9813356 0.342664 0.23106346
23.978813 -2.3109512 0
9.9439268 0.33963311 -0.23019442
23.897732 -2.3073392 -1.1180056
nan nan nan
15.700641 -1.5206871 -1.4406912
13.272951 0.45412832 -1.5396245
10.467375 -1.0167754 -1.4749781
8.3703728 0.28694636 -1.4616338
5.1822829 -0.5095548 -1.4802217
6.7299237 0.23256738 -1.5342873
4.2175822 -0.41797709 -1.4456837
3.4465349 0.12624933 -1.3737872
2.5829017 -0.26364458 -1.354486
3.0132172 0.11317449 -1.3872775
2.2696855 -0.23533586 -1.3474396
2.0419865 0.084629111 -1.3493927
1.771843 -0.18840396 -1.3207209
1.6028646 0.072141036 -1.3147385
1.4188359 -0.15647811 -1.3035879
1.3039438 0.063915081 -1.32041
1.1528811 -0.13139656 -1.3006575
1.0499089 0.05602045 -1.2964755
0.9681083 -0.11303061 -1.2794112
23.15016 0.77764231 6.1712642
24.248175 -2.4266307 5.6314569
23.121809 0.74843788 4.4565334
24.176819 -2.4109783 3.7993
10.018267 0.31592169 1.2193373
24.115005 -2.4048207 2.3131161
10.018379 0.31243083 0.6949501
24.06431 -2.3997669 1.1261543
10.012447 0.30875212 0.23175977
24.010399 -2.3986182 0
9.927618 0.30264717 -0.22978823
23.926804 -2.3944774 -1.1197525
nan nan nan
15.69276 -1.5752344 -1.4404634
13.18517 0.40273178 -1.5292332
10.448983 -1.0518163 -1.4728879
8.3812141 0.25656971 -1.46336
5.1996012 -0.5295977 -1.4857244
6.7453446 0.20835614 -1.537636
4.2231526 -0.43342447 -1.448123
3.4539287 0.11385062 -1.3765872
2.5753729 -0.27195671 -1.3509799
3.0204072 0.10236585 -1.3904424
2.2645872 -0.2427955 -1.3448683
2.0360622 0.076900966 -1.3452107
1.7691588 -0.1946698 -1.3192132
1.6069477 0.066430941 -1.3179492
1.41644 -0.16146728 -1.3018794
1.3024272 0.059280209 -1.3186086
1.1507676 -0.13542607 -1.2987671
1.0516477 0.052253243 -1.2984428
0.97209412 -0.11712232 -1.2854557
23.179415 0.69358498 6.1783538
24.21489 -2.5129724 5.6258206
23.168564 0.66495949 4.4650583
24.202213 -2.503135 3.8047149
nan nan nan
24.150587 -2.4978032 2.3173978
10.029429 0.27598634 0.6956442
24.105034 -2.4930935 1.1284835
10.043541 0.27112141 0.23245609
24.041235 -2.4907305 0
9.9136696 0.26585299 -0.22944008
23.957609 -2.4862852 -1.1216158
nan nan nan
15.686597 -1.6354786 -1.4404634
13.196487 0.35467166 -1.5303879
10.439942 -1.091414 -1.4721911
8.3796358 0.22578226 -1.4629284
5.2118692 -0.55108112 -1.4898514
6.7558074 0.18390059 -1.5398686
4.2167559 -0.44913372 -1.4464968
3.4566407 0.10126019 -1.3775203
2.5765064 -0.28208596 -1.3521487
3.0117002 0.091013215 -1.3862225
2.2657685 -0.25172803 -1.346154
2.0384042 0.069511406 -1.3466047
1.7683984 -0.20146145 -1.3192132
1.6129255 0.060767476 -1.3227651
1.4121852 -0.16647069 -1.2984624
1.3078408 0.054507479 -1.3240128
1.1551094 -0.14044774 -1.3044385
1.0487591 0.048064124 -1.2945082
0.96725374 -0.12012411 -1.2794112
23.222742 0.6137588 6.1893106
24.220503 -2.5990431 5.6292024
23.180561 0.5843305 4.4669528
24.242447 -2.592859 3.8124506
23.29269 0.5709157 2.8400714
24.19121 -2.5873866 2.3221552
10.000413 0.24024944 0.69356191
24.123497 -2.5801444 1.1297644
nan nan nan
24.064709 -2.5780995 0
9.8870535 0.23059849 -0.22880177
24.018309 -2.5773644 -1.1248766
nan nan nan
15.673661 -1.6866881 -1.4397798
13.185231 0.30831265 -1.5289446
10.428883 -1.1252298 -1.471146
8.3705273 0.19629674 -1.4612024
5.2315168 -0.57071632 -1.4960419
6.7856426 0.16102156 -1.5465661
4.219943 -0.46363339 -1.448123
3.4662468 0.08943972 -1.3812535
2.5711651 -0.29012883 -1.3498113
3.0142653 0.080562368 -1.3872775
2.2585318 -0.25850204 -1.3422968
2.0427828 0.062528171 -1.3493927
1.7736613 -0.20802979 -1.3237362
1.6131277 0.055136941 -1.3227651
1.4134368 -0.17137581 -1.3001709
1.3114784 0.050311174 -1.3276155
1.151392 -0.14386399 -1.3006575
1.0519947 0.044726536 -1.2984428
0.9712311 -0.12407542 -1.2854557
23.253628 0.53741872 6.1970448
24.284374 -2.6873906 5.646112
23.202003 0.50788969 4.4707413
24.277906 -2.6781144 3.8194125
23.22995 0.49229744 2.832195
24.232437 -2.6688261 2.3269129
nan nan nan
24.166935 -2.6658816 1.1322101
23.051352 0.47240627 0.53448653
24.113178 -2.6642065 0
9.8552437 0.19887285 -0.22804742
24.046862 -2.6611216 -1.1266235
nan nan nan
15.67293 -1.7392043 -1.4402355
13.191101 0.26698998 -1.5295218
10.39557 -1.1565163 -1.4669657
8.368639 0.16994829 -1.4607707
5.2391481 -0.58913988 -1.4987932
6.7861147 0.13970308 -1.5465661
4.2160335 -0.47735745 -1.44731
3.4641924 0.07849554 -1.3803202
2.5723839 -0.29891056 -1.3509799
3.0031745 0.070815511 -1.3820027
2.2597914 -0.26624331 -1.3435825
2.0388205 0.055990778 -1.3466047
1.7769581 -0.21408962 -1.3267516
1.6113775 0.05000601 -1.3211597
1.4183238 -0.17650166 -1.3052964
1.3029766 0.045638222 -1.3186086
1.1509342 -0.14748047 -1.3006575
1.0552124 0.041552186 -1.3023776
0.96056813 -0.12575044 -1.2713519
23.257778 0.45629284 6.1976891
24.335344 -2.7790568 5.6602035
23.230633 0.42739597 4.4759507
24.312582 -2.7678766 3.8263745
23.2216 0.41103011 2.8309832
24.247217 -2.7604415 2.3292916
23.135559 0.40142596 1.6074951
24.197182 -2.7547467 1.1340735
23.097843 0.39270863 0.53553104
24.188185 -2.757998 0
9.9158821 0.16375525 -0.22944008
24.092012 -2.7512832 -1.1291857
nan nan nan
15.661819 -1.7933353 -1.4397798
13.182059 0.21847397 -1.5283673
10.334903 -1.1862915 -1.4589531
8.3618212 0.1391495 -1.4594761
5.2633214 -0.61048144 -1.5063595
6.7963276 0.11499821 -1.5487987
4.2096448 -0.4915204 -1.4456837
3.4760506 0.066026799 -1.3849865
2.5669365 -0.30735856 -1.3486427
3.0102117 0.059949063 -1.3851676
2.2545917 -0.27360871 -1.341011
2.0410867 0.048569907 -1.3479987
1.7722043 -0.22009782 -1.3237362
1.6077186 0.043987978 -1.3179492
1.4122375 -0.18099274 -1.3001709
1.3048606 0.041148394 -1.32041
1.1536285 -0.15213342 -1.3044385
1.0491918 0.037445344 -1.2945082
0.96889794 -0.13048159 -1.2834408
23.281031 0.37139484 6.2034898
24.327414 -2.8685169 5.6607671
23.295858 0.34319538 4.4882641
24.331709 -2.8604312 3.8310156
23.262653 0.3264772 2.8358305
24.26907 -2.8530736 2.3323841
23.244106 0.31810579 1.6149565
24.243967 -2.8501265 1.136752
23.176651 0.30504429 0.53732985
24.182877 -2.8472188 0
nan nan nan
24.104084 -2.8422 -1.1302338
nan nan nan
15.65976 -1.8540452 -1.4402355
13.175323 0.17006034 -1.5275013
10.372063 -1.2309344 -1.4648755
8.3474998 0.10830498 -1.4568868
5.2728696 -0.63212192 -1.5097985
6.8088865 0.090253517 -1.5515893
4.2006865 -0.50682735 -1.4432445
3.4832263 0.053397715 -1.3877865
2.5679305 -0.31748578 -1.3498113
3.0058789 0.048838146 -1.3830577
2.2599061 -0.28306988 -1.3448683
2.0350261 0.040954977 -1.3438166
1.7772791 -0.22766942 -1.3282591
1.6155326 0.038290426 -1.3243704
1.4115322 -0.18641399 -1.3001709
1.3015435 0.036033727 -1.3168073
1.1497949 -0.15611391 -1.3006575
1.0524112 0.033524141 -1.2984428
0.9640168 -0.13341013 -1.2773963
23.313583 0.29052117 6.2118683
24.377699 -2.9607646 5.6748586
23.294458 0.2618477 4.4877906
24.380423 -2.9524789 3.8402984
23.268612 0.24532625 2.836436
24.305902 -2.94346 2.3369038
23.215147 0.2366586 1.6128743
24.243786 -2.9359384 1.1372179
23.245016 0.2288574 0.53889656
24.222429 -2.9376395 0
23.240095 0.22069536 -0.53878379
24.096497 -2.9266231 -1.1303502
nan nan nan
15.646112 -1.9050608 -1.4395518
13.044228 0.12280544 -1.5122033
10.382668 -1.2671252 -1.4669657
8.3552151 0.07923831 -1.4581815
5.2731304 -0.64989895 -1.5104864
6.833528 0.066732205 -1.5571705
4.1989827 -0.52075458 -1.4432445
3.4880292 0.041296944 -1.389653
2.5624793 -0.32543871 -1.347474
2.9924331 0.038160246 -1.3767278
2.258955 -0.29056245 -1.3448683
2.033082 0.033813857 -1.3424228
1.7725608 -0.23303641 -1.3252438
1.6099083 0.032524504 -1.3195546
1.4036738 -0.19010048 -1.2933369
1.3051217 0.03181003 -1.32041
1.1476512 -0.15969655 -1.2987671
1.0525166 0.030034037 -1.2984428
0.9694041 -0.13762385 -1.2854557
23.331326 0.21336538 6.2163801
24.406414 -3.0464182 5.6838765
23.258381 0.18430346 4.4806871
24.358244 -3.0317848 3.8383646
23.251928 0.16803606 2.8343155
24.350868 -3.0265622 2.3421371
23.263189 0.16000393 1.6161711
24.29339 -3.0237253 1.1400129
23.195662 0.15144137 0.53773606
24.23736 -3.0210423 0
23.183189 0.14731224 -0.53744912
24.151087 -3.0145617 -1.1333781
nan nan nan
