ply
format ascii 1.0
comment PCL generated
element vertex 1661
property float x
property float y
property float z
element camera 0
property float view_px
property float view_py
property float view_pz
property float x_axisx
property float x_axisy
property float x_axisz
property float y_axisx
property float y_axisy
property float y_axisz
property float z_axisx
property float z_axisy
property float z_axisz
property float focal
property float scalex
property float scaley
property float centerx
property float centery
property int viewportx
property int viewporty
property float k1
property float k2
end_header
2.0508633 -0.89295113 -1.3204395
1.937754 -0.52822405 -1.3256948
1.6024877 -0.70303977 -1.2965981
1.5420966 -0.41445851 -1.3083174
1.2915686 -0.57267892 -1.2899199
1.2504357 -0.33049738 -1.3078004
1.0530541 -0.47152361 -1.2930956
1.0146216 -0.26365128 -1.2925408
0.89116955 -0.40200183 -1.2834408
nan nan nan
27.277678 -11.75652 6.8658571
nan nan nan
27.186516 -11.705991 4.6297083
25.926598 -7.3292236 3.2847888
27.177631 -11.696555 2.8247895
25.846964 -7.3164577 1.8665614
21.592979 -9.2970543 1.0947105
25.854151 -7.3282328 0.62309372
nan nan nan
20.108425 -5.7039824 -0.48447019
17.395327 -7.4964581 -0.88171047
19.840342 -5.6279769 -1.425229
14.081863 -6.0739069 -1.4005835
12.554205 -3.5620935 -1.5127805
9.4077492 -4.060935 -1.4370062
7.9934278 -2.2674496 -1.4499822
4.6703815 -2.0225132 -1.4465177
6.5116801 -1.845162 -1.5421011
3.8380427 -1.6655905 -1.4269825
3.3893697 -0.95279139 -1.4027189
2.3118713 -1.0113134 -1.3159199
2.8184316 -0.78959906 -1.3461338
2.0439668 -0.89801812 -1.3178681
1.9320827 -0.5332104 -1.3229067
1.6002691 -0.70807636 -1.2965981
1.5370867 -0.41830137 -1.3051069
1.2947571 -0.57897812 -1.2950454
1.2493329 -0.33464217 -1.3078004
1.0515676 -0.47482955 -1.2930956
1.0182673 -0.26800171 -1.2984428
0.88990229 -0.40479955 -1.2834408
nan nan nan
nan nan nan
nan nan nan
27.335754 -11.883549 4.6621976
25.965267 -7.4381256 3.292968
27.180223 -11.815935 2.8295469
25.917164 -7.434134 1.8735023
21.484819 -9.33951 1.0908673
25.866848 -7.4294724 0.62402219
nan nan nan
19.993706 -5.7507124 -0.48220712
17.405691 -7.5730796 -0.88357377
19.865124 -5.7137508 -1.4285094
14.030904 -6.1100984 -1.3976209
12.552998 -3.6115136 -1.5142238
9.3867083 -4.0907807 -1.4359611
7.9732308 -2.2933319 -1.4478245
4.6610918 -2.0378397 -1.44583
6.5095587 -1.8703603 -1.5432174
3.8343701 -1.6799275 -1.4277956
3.3880854 -0.96584195 -1.4036522
2.3063061 -1.0184827 -1.3147513
2.8155189 -0.79992384 -1.3461338
2.042779 -0.90601879 -1.3191538
1.9241176 -0.53861815 -1.3187248
1.5903871 -0.71066636 -1.2905674
1.5373913 -0.42443886 -1.306712
1.2893026 -0.58221126 -1.2916285
1.2548529 -0.34080276 -1.3150059
1.051307 -0.47936288 -1.2949861
1.0172782 -0.27173203 -1.2984428
0.88572639 -0.40681499 -1.2794112
nan nan nan
nan nan nan
nan nan nan
nan nan nan
25.99873 -7.5460038 3.3005416
27.065889 -11.878729 2.8219349
25.974878 -7.5489087 1.8795755
21.372055 -9.3793173 1.0867913
25.95355 -7.5525312 0.6267494
nan nan nan
19.887123 -5.7953053 -0.48011816
17.424875 -7.6538815 -0.885903
19.833082 -5.7795706 -1.4276462
14.000375 -6.1550293 -1.3967094
12.573692 -3.6650324 -1.5182648
9.3633089 -4.1195321 -1.4345677
7.9722695 -2.3232143 -1.4491191
4.6539502 -2.0540977 -1.44583
6.5123496 -1.8957927 -1.5454499
3.8176751 -1.6885147 -1.4237303
3.3802359 -0.97637862 -1.4017856
2.296684 -1.0238217 -1.3112452
2.8192451 -0.81162232 -1.3492988
2.0356917 -0.91138744 -1.3165823
1.9202284 -0.54476762 -1.3173307
1.5897133 -0.71703613 -1.292075
1.5395937 -0.43082914 -1.3099227
1.2889216 -0.58746827 -1.2933369
1.2469662 -0.34335598 -1.3078004
1.0525961 -0.48440459 -1.2987671
1.0148332 -0.27488261 -1.2964755
0.88564181 -0.41053072 -1.281426
nan nan nan
nan nan nan
nan nan nan
nan nan nan
26.018511 -7.6552482 3.3066003
nan nan nan
25.963783 -7.648993 1.8807901
21.248499 -9.4181128 1.0822494
25.953127 -7.6606183 0.62744576
nan nan nan
19.774662 -5.8412623 -0.47791311
17.440071 -7.7369471 -0.88811564
19.790237 -5.8458676 -1.4260923
13.917486 -6.1824551 -1.3907844
12.63877 -3.7342989 -1.5277901
9.354207 -4.1584725 -1.4356128
7.9613395 -2.3517215 -1.4486876
4.6350551 -2.0670526 -1.4423907
6.5076952 -1.9203378 -1.546008
3.8111634 -1.7031611 -1.4237303
3.3744082 -0.98811102 -1.4008523
2.2927358 -1.0326328 -1.3112452
2.8184278 -0.82258296 -1.3503537
2.0224144 -0.91476858 -1.3101536
1.9182189 -0.55180192 -1.3173307
1.5869485 -0.72313482 -1.292075
1.5361595 -0.43594918 -1.3083174
1.2899692 -0.5939458 -1.2967539
1.2489798 -0.34906676 -1.3114032
1.0492465 -0.48774949 -1.2968765
1.0167476 -0.27958617 -1.3004102
0.87743813 -0.41061729 -1.2713519
nan nan nan
nan nan nan
nan nan nan
nan nan nan
26.138063 -7.7846823 3.3250799
nan nan nan
26.084066 -7.7785125 1.8913749
21.130522 -9.4497728 1.077824
25.991198 -7.7607012 0.62895447
nan nan nan
19.674789 -5.8790374 -0.47594017
17.487261 -7.8273897 -0.89184242
19.781336 -5.9108667 -1.426783
13.918442 -6.2353115 -1.3928354
12.615078 -3.7704327 -1.5263468
9.3320627 -4.1837859 -1.4342192
7.9633508 -2.3795388 -1.4504138
4.6307302 -2.0825908 -1.4430785
6.510972 -1.9435576 -1.5482405
3.7971747 -1.7112359 -1.4204777
3.3824086 -1.0019929 -1.4055188
2.2874694 -1.0389148 -1.3100766
2.8114812 -0.83015347 -1.3482438
2.0234303 -0.92290145 -1.3127252
1.9184692 -0.55840272 -1.3187248
1.5847937 -0.72784591 -1.292075
1.5347823 -0.44077301 -1.3083174
1.2898554 -0.59854198 -1.2984624
1.247877 -0.35298881 -1.3114032
1.0403965 -0.48737285 -1.2874241
1.0114514 -0.28137511 -1.2945082
0.87748039 -0.41400737 -1.2733667
nan nan nan
nan nan nan
nan nan nan
nan nan nan
26.108356 -7.8751569 3.3247771
nan nan nan
26.056755 -7.8695149 1.8913749
21.045061 -9.4998388 1.0751455
26.035721 -7.8730764 0.63069528
21.139143 -9.5467606 0
19.555035 -5.9214234 -0.47356108
17.573614 -7.9398065 -0.89766538
19.769085 -5.9862194 -1.4274735
13.830811 -6.2541008 -1.3862267
12.603552 -3.8173635 -1.5266354
9.3174009 -4.2163353 -1.4342192
7.9569321 -2.4094224 -1.4508452
4.6146793 -2.0947645 -1.4403272
6.5038042 -1.9674084 -1.5482405
3.7933297 -1.7254601 -1.4212909
3.3764915 -1.0137181 -1.4045854
2.2878449 -1.0487388 -1.3124139
2.8084197 -0.84045255 -1.3482438
2.0182498 -0.92906028 -1.3114394
1.9223834 -0.56718409 -1.3229067
1.5803095 -0.73280233 -1.2905674
1.5386797 -0.44799262 -1.3131332
1.2893043 -0.60404289 -1.3001709
1.2466373 -0.35734254 -1.3114032
1.0445117 -0.49399465 -1.2949861
1.014871 -0.28632328 -1.3004102
0.8772915 -0.41786119 -1.2753816
nan nan nan
nan nan nan
26.123764 -7.9594765 5.2621193
nan nan nan
26.080708 -7.9662447 3.3247771
27.422783 -12.494903 2.8771224
26.007658 -7.9538589 1.8898132
20.886787 -9.516284 1.0687402
25.987574 -7.9625931 0.63023108
21.037447 -9.5893784 0
19.460165 -5.9669423 -0.47176221
17.588959 -8.0207987 -0.89987803
19.733763 -6.0508041 -1.4264375
13.78968 -6.2964764 -1.3844037
12.549787 -3.848964 -1.5217285
9.3063879 -4.2525158 -1.434916
7.9602456 -2.4407887 -1.4530029
4.6004176 -2.1086569 -1.4382638
6.5062184 -1.9929506 -1.550473
3.7826848 -1.7373761 -1.4196646
3.3684938 -1.024152 -1.4027189
2.2839856 -1.0571171 -1.3124139
2.803299 -0.84959507 -1.3471888
2.0148311 -0.93645126 -1.3114394
1.9164134 -0.57270801 -1.3201187
1.581223 -0.74028593 -1.2935828
1.5279107 -0.45066661 -1.3051069
1.2755427 -0.60328043 -1.2882115
1.238656 -0.35998988 -1.3041977
1.036796 -0.49498618 -1.2874241
1.0093616 -0.28878179 -1.2945082
0.87316334 -0.41963077 -1.2713519
nan nan nan
nan nan nan
26.026392 -8.0341787 5.248385
nan nan nan
26.003918 -8.0471125 3.3187182
27.498884 -12.651504 2.8899679
25.97595 -8.0483904 1.8896396
20.785978 -9.562499 1.0653629
25.9606 -8.0585289 0.63028908
21.040764 -9.6841917 0
19.337915 -6.0070987 -0.46932507
nan nan nan
19.768618 -6.140842 -1.4305812
13.80042 -6.3626161 -1.3878219
12.509509 -3.8868351 -1.5185535
9.2952337 -4.288672 -1.4356128
7.9465418 -2.4684885 -1.4521399
4.5970197 -2.1275249 -1.4396394
6.5035257 -2.0182264 -1.5515893
3.7762914 -1.7512287 -1.4196646
3.3713682 -1.0385348 -1.4055188
2.2800958 -1.0654812 -1.3124139
2.8001661 -0.859864 -1.3471888
2.015265 -0.94565541 -1.3140107
1.9083405 -0.57793182 -1.3159367
1.571292 -0.74265736 -1.2875521
1.5280856 -0.45680922 -1.306712
1.2766142 -0.60953033 -1.2916285
1.2389923 -0.36501333 -1.305999
1.0393903 -0.50092417 -1.2930956
1.0082965 -0.29247934 -1.2945082
0.87427884 -0.42412817 -1.2753816
nan nan nan
nan nan nan
nan nan nan
nan nan nan
25.999353 -8.1452513 3.3217475
27.576441 -12.80402 2.9028132
25.983393 -8.1502085 1.8922424
20.700378 -9.6108065 1.0626844
25.969503 -8.1558037 0.63115948
21.072584 -9.788126 0
19.2453 -6.0520806 -0.46758425
nan nan nan
19.747063 -6.2098103 -1.4305812
13.797302 -6.4167466 -1.389645
12.465068 -3.9207969 -1.514801
9.28545 -4.3215628 -1.4363096
7.9496236 -2.4999022 -1.4542977
4.5877619 -2.1417398 -1.4389516
6.5057421 -2.043834 -1.5538218
3.7619002 -1.7597302 -1.4164124
3.361079 -1.0482301 -1.4027189
2.2745516 -1.0720923 -1.3112452
2.7993128 -0.87030417 -1.3482438
2.0063074 -0.94957513 -1.3101536
1.9102814 -0.58580118 -1.3187248
1.5724183 -0.74958527 -1.2905674
1.5173055 -0.45938045 -1.2986857
1.272943 -0.61296552 -1.2899199
1.2344505 -0.36813703 -1.3023963
1.0377235 -0.50436819 -1.2930956
1.0058395 -0.29539123 -1.2925408
0.86881083 -0.42521358 -1.2693371
nan nan nan
nan nan nan
nan nan nan
nan nan nan
26.277372 -8.3281136 3.360827
27.590172 -12.915918 2.9085221
26.001392 -8.2506552 1.8955394
20.625425 -9.6592703 1.0604717
25.944696 -8.2426338 0.63121754
21.144138 -9.9067545 0
19.133293 -6.0829883 -0.46532115
20.848162 -9.7724838 -1.0721208
19.760731 -6.2823915 -1.4329983
13.773694 -6.4614067 -1.3894171
12.436122 -3.9546731 -1.5127805
9.262105 -4.3481207 -1.434916
7.939384 -2.5241191 -1.453866
4.5871563 -2.1600163 -1.441015
6.5016117 -2.0649991 -1.5543798
3.7560441 -1.7721955 -1.4164124
3.3511319 -1.0566963 -1.399919
2.2709839 -1.0796291 -1.3112452
2.8030529 -0.88112748 -1.3514087
2.0012136 -0.95529735 -1.3088679
1.9104146 -0.59241146 -1.3201187
1.5682575 -0.75366086 -1.2890598
1.5158548 -0.46414489 -1.2986857
1.2693706 -0.61616147 -1.2882115
1.2332228 -0.37222862 -1.3023963
1.0376012 -0.50834906 -1.2949861
1.0063866 -0.2989845 -1.2945082
0.87012136 -0.42925844 -1.2733667
nan nan nan
nan nan nan
nan nan nan
nan nan nan
26.125263 -8.3803825 3.3450739
27.655144 -13.070131 2.9204161
25.872702 -8.3093462 1.8882515
20.519337 -9.6970568 1.0567449
26.058533 -8.3790388 0.63469917
21.145592 -9.9976015 0
19.034739 -6.1285729 -0.46346429
20.852299 -9.8633537 -1.0741005
19.818293 -6.3807545 -1.4388684
13.787056 -6.5264945 -1.3930632
12.39554 -3.9918585 -1.5096055
9.2558193 -4.384666 -1.4363096
7.9371114 -2.5554633 -1.4551606
4.5795884 -2.1760154 -1.441015
6.5009599 -2.0910506 -1.5560542
3.7434332 -1.7822436 -1.413973
3.3494461 -1.0696757 -1.4008523
2.2751687 -1.0913805 -1.3159199
2.793324 -0.8893382 -1.3482438
1.9978667 -0.96227705 -1.3088679
1.9082304 -0.59940958 -1.3201187
1.5636939 -0.75852507 -1.2875521
1.5104805 -0.46856868 -1.295475
1.2703787 -0.62242192 -1.2916285
1.230257 -0.37602833 -1.3005948
1.0342665 -0.51142001 -1.2930956
1.0082409 -0.30355144 -1.2984428
0.86192769 -0.42912665 -1.2632927
nan nan nan
nan nan nan
nan nan nan
nan nan nan
25.433498 -8.2614775 3.2602506
nan nan nan
25.396179 -8.2591534 1.8556296
20.41604 -9.7399321 1.0532511
nan nan nan
21.14039 -10.090115 0
18.91947 -6.1680951 -0.46120122
20.894875 -9.9773903 -1.0781766
19.799517 -6.454895 -1.4392138
13.707993 -6.5536051 -1.3875941
12.359577 -4.0303383 -1.5070077
9.2366829 -4.4191046 -1.4359611
7.9230094 -2.5830121 -1.4542977
4.5668664 -2.1915019 -1.4396394
6.4978867 -2.1163714 -1.5571705
3.7344322 -1.7955785 -1.4131598
3.336674 -1.0790966 -1.3971192
2.2729492 -1.101074 -1.3170886
2.7857296 -0.89818287 -1.3461338
1.9903032 -0.96806151 -1.3062965
1.9079992 -0.60702604 -1.3215127
1.5697179 -0.76892287 -1.2950904
1.5124117 -0.47524413 -1.2986857
1.2696137 -0.62810761 -1.2933369
1.2304611 -0.38125852 -1.3023963
1.0279098 -0.51318485 -1.2874241
1.0011609 -0.30563712 -1.2905736
0.86563092 -0.43495673 -1.2713519
nan nan nan
nan nan nan
nan nan nan
nan nan nan
nan nan nan
nan nan nan
25.317444 -8.3313847 1.8519856
20.213163 -9.7298861 1.0445168
25.316601 -8.3408966 0.61804539
21.172611 -10.196396 0
18.817122 -6.2074871 -0.45922831
nan nan nan
19.88345 -6.5591154 -1.446983
13.66376 -6.5882111 -1.3853152
12.3077 -4.0610142 -1.5023894
9.2242069 -4.4507866 -1.4363096
7.9256392 -2.6145065 -1.4564553
4.5574117 -2.2055862 -1.4389516
6.4974041 -2.1413267 -1.5588449
3.7220776 -1.8048546 -1.4107207
3.3372965 -1.0921767 -1.3989857
2.265316 -1.1066614 -1.3147513
2.7718012 -0.90439576 -1.3408592
1.9928536 -0.97749501 -1.3101536
1.8979635 -0.61114901 -1.3159367
1.5617992 -0.77146661 -1.2905674
1.5034341 -0.47821024 -1.2922645
1.2691555 -0.63313216 -1.2950454
1.2275347 -0.38482213 -1.3005948
1.0276616 -0.51732975 -1.2893145
1.0016171 -0.30940616 -1.2925408
0.86542541 -0.43864873 -1.2733667
nan nan nan
nan nan nan
nan nan nan
nan nan nan
nan nan nan
nan nan nan
nan nan nan
20.102161 -9.7586842 1.0404408
25.253235 -8.4129581 0.61717498
21.359053 -10.373606 0
18.716909 -6.2397065 -0.45725536
nan nan nan
19.777563 -6.593163 -1.4407675
13.637361 -6.6313076 -1.3848594
12.268966 -4.0910239 -1.4992143
9.1960421 -4.4748487 -1.4342192
7.905704 -2.6355019 -1.4542977
4.5392742 -2.2154112 -1.4355123
6.4929566 -2.1624973 -1.5594029
3.713949 -1.8161479 -1.4099076
3.3228364 -1.0990223 -1.3943194
2.2596521 -1.113189 -1.3135827
2.7710993 -0.91380715 -1.3419141
1.9876804 -0.98314548 -1.3088679
1.8999828 -0.61838776 -1.3187248
1.5593655 -0.77637494 -1.2905674
1.5019243 -0.48293105 -1.2922645
1.2639021 -0.63547033 -1.2916285
1.2229446 -0.38785043 -1.2969921
1.0245744 -0.51981205 -1.2874241
0.99474478 -0.31072974 -1.2846714
0.86272717 -0.44068822 -1.2713519
nan nan nan
nan nan nan
nan nan nan
nan nan nan
26.464394 -8.8985186 3.4041474
nan nan nan
26.411272 -8.8909168 1.9364902
20.06349 -9.8265972 1.0402079
26.384279 -8.8920822 0.64560819
21.457405 -10.514113 0
18.606293 -6.2787094 -0.45510837
20.075754 -9.8412962 -1.0410262
19.783991 -6.6759706 -1.4430121
13.57837 -6.6613207 -1.3812132
12.228005 -4.127233 -1.4960393
9.1537018 -4.4938245 -1.4300389
7.914659 -2.6707535 -1.45775
4.533669 -2.2323055 -1.4362001
6.4849873 -2.1862807 -1.5594029
3.7033474 -1.8270067 -1.4082813
3.3143866 -1.1097242 -1.3924528
2.261687 -1.1240259 -1.3170886
2.7634304 -0.92252594 -1.3398042
1.9765667 -0.98624045 -1.303725
1.8977035 -0.62534744 -1.3187248
1.5582925 -0.7829774 -1.292075
1.4928504 -0.4860726 -1.2858434
1.2583125 -0.63844079 -1.2882115
1.2232352 -0.39264286 -1.2987936
1.0241165 -0.52431273 -1.2893145
0.99654359 -0.31529516 -1.2886062
0.85979265 -0.44316527 -1.2693371
nan nan nan
nan nan nan
nan nan nan
nan nan nan
26.466843 -9.0074444 3.4086916
nan nan nan
26.418642 -9.0013294 1.93944
20.00943 -9.8912125 1.0392762
26.385426 -9.0054312 0.64647859
21.288759 -10.528398 0
18.512196 -6.3226376 -0.45336753
19.97464 -9.8826952 -1.0376489
19.75939 -6.7484384 -1.4430121
13.514771 -6.6946168 -1.3773392
12.193996 -4.1656055 -1.4937301
9.1607742 -4.541038 -1.433871
7.9001555 -2.6981535 -1.4568868
4.5293679 -2.2518389 -1.4375759
6.4792366 -2.2108204 -1.5599611
3.6836116 -1.8348818 -1.4034028
3.310297 -1.1218646 -1.3924528
2.2534056 -1.1307158 -1.3147513
2.7600305 -0.93264824 -1.3398042
1.967024 -0.99092257 -1.2998679
1.8875207 -0.6296826 -1.3131487
1.5606061 -0.79166925 -1.2965981
1.4983438 -0.49392769 -1.2922645
1.2590973 -0.64493781 -1.2916285
1.2299674 -0.39999798 -1.3078004
1.0235472 -0.52899581 -1.291205
0.99826634 -0.32005215 -1.2925408
0.85685152 -0.44562677 -1.2673223
nan nan nan
nan nan nan
nan nan nan
nan nan nan
26.543177 -9.1369219 3.4226267
nan nan nan
26.448368 -9.1146145 1.9439516
19.898802 -9.9230995 1.0353166
26.431023 -9.1189566 0.64833546
19.963396 -9.9596701 0
18.409691 -6.3594832 -0.45139465
19.879694 -9.9222355 -1.0345045
19.705063 -6.806787 -1.4407675
13.434593 -6.710464 -1.3714142
12.155908 -4.2000399 -1.4908437
9.1368093 -4.5669622 -1.4324775
7.8906889 -2.725714 -1.4568868
4.5175796 -2.2646902 -1.4362001
6.4668732 -2.2318358 -1.5588449
3.6775067 -1.8470868 -1.4034028
3.3019714 -1.1319118 -1.3905863
2.2476726 -1.1371827 -1.3135827
2.7567582 -0.94227684 -1.3398042
1.9618167 -0.99646699 -1.2985821
1.89318 -0.63891095 -1.3187248
1.5597465 -0.79775071 -1.2981057
1.4966108 -0.49915481 -1.2922645
1.2488514 -0.64490724 -1.2830858
1.2236902 -0.40246141 -1.3023963
1.0246851 -0.53390592 -1.2949861
0.99426186 -0.32241815 -1.2886062
0.85790801 -0.44999784 -1.2713519
nan nan nan
nan nan nan
26.575838 -9.2260685 5.420774
nan nan nan
26.54789 -9.2371206 3.427171
nan nan nan
26.498074 -9.2301569 1.9498513
19.765392 -9.9385376 1.0300759
26.471439 -9.2312384 0.65007627
19.80073 -9.9606428 0
18.297585 -6.3851838 -0.44913158
19.766382 -9.9476833 -1.0303121
19.636484 -6.8522301 -1.4373146
13.325556 -6.7112908 -1.3625267
12.123896 -4.2316647 -1.4885346
9.0884562 -4.5805159 -1.4272519
7.8820868 -2.7504897 -1.4568868
4.5014663 -2.2753179 -1.4334489
6.4644318 -2.2537434 -1.5599611
3.6629276 -1.8549949 -1.4001504
3.2940154 -1.140765 -1.3887198
2.2497926 -1.1476483 -1.3170886
2.7559273 -0.95167071 -1.3408592
1.9623162 -1.004926 -1.3011537
1.8931285 -0.64552242 -1.3201187
1.5536878 -0.80082005 -1.2950904
1.5004869 -0.50568032 -1.2970804
1.2532889 -0.6522097 -1.2899199
1.2272874 -0.40814656 -1.3078004
1.0186632 -0.53483051 -1.2893145
0.99911338 -0.32744375 -1.2964755
0.85649008 -0.45269084 -1.2713519
nan nan nan
nan nan nan
26.612955 -9.3431673 5.4349813
nan nan nan
26.59742 -9.3585567 3.4377739
nan nan nan
26.53862 -9.348278 1.9552305
19.603634 -9.9430695 1.0234379
26.486197 -9.3402052 0.65123683
19.685587 -9.988966 0
18.197403 -6.4215775 -0.44721666
19.653601 -9.977046 -1.0262359
18.227123 -6.4320679 -1.3356235
13.248782 -6.7306948 -1.3570575
12.083289 -4.2648721 -1.4853594
9.0635862 -4.6077237 -1.4258586
7.8747611 -2.7788055 -1.4573184
4.4977779 -2.2932026 -1.4348245
6.4519286 -2.2746763 -1.5588449
3.6543255 -1.866693 -1.3993373
3.2878239 -1.1514912 -1.3877865
2.2398801 -1.1524557 -1.3135827
2.7483077 -0.95979416 -1.3387492
1.9549886 -1.0097973 -1.2985821
1.8889011 -0.65145284 -1.3187248
1.5526507 -0.80716085 -1.2965981
1.4950821 -0.50968468 -1.2938697
1.2461612 -0.65402693 -1.2847944
1.219278 -0.41023251 -1.3005948
1.01679 -0.53838307 -1.2893145
0.99356735 -0.32948625 -1.2905736
0.85229671 -0.45427763 -1.2673223
nan nan nan
nan nan nan
26.651232 -9.455987 5.4491897
nan nan nan
26.634047 -9.4708099 3.4465592
nan nan nan
26.582659 -9.4629889 1.9607831
19.461611 -9.9522982 1.0177314
26.563379 -9.4665689 0.65390605
19.667933 -10.062162 0
18.093613 -6.4525146 -0.44518572
19.52927 -9.9955072 -1.0214611
nan nan nan
13.162135 -6.7416687 -1.3504487
12.048029 -4.2974138 -1.4827616
9.0196199 -4.6230679 -1.4213299
7.8724618 -2.8073831 -1.458613
4.4837375 -2.3048058 -1.4327611
6.4558291 -2.3001442 -1.5616355
3.6418121 -1.8755505 -1.396898
3.2774265 -1.1600709 -1.3849865
2.2340853 -1.1588576 -1.3124139
2.740834 -0.96739763 -1.3366393
1.9497288 -1.0152826 -1.2972965
1.8886908 -0.6583935 -1.3201187
1.5517306 -0.81323344 -1.2981057
1.4915708 -0.51401871 -1.2922645
1.2439855 -0.65815574 -1.2847944
1.2162684 -0.41371918 -1.2987936
1.0164404 -0.54252577 -1.291205
0.99539745 -0.33375105 -1.2945082
0.85208726 -0.45780581 -1.2693371
nan nan nan
nan nan nan
nan nan nan
nan nan nan
26.652203 -9.5821896 3.4532239
nan nan nan
26.610479 -9.5776768 1.9652946
19.355734 -9.983531 1.0140047
26.544283 -9.5643177 0.65425426
19.745987 -10.189234 0
18.022818 -6.5018301 -0.44402513
19.418816 -10.024659 -1.0175015
nan nan nan
13.038995 -6.7361369 -1.3401939
12.004165 -4.3314347 -1.479298
8.9880362 -4.6465631 -1.4188913
7.8598027 -2.8353834 -1.4581815
4.4585981 -2.3115852 -1.4272584
6.4381843 -2.3204887 -1.5594029
3.6268535 -1.8838878 -1.3936456
3.264416 -1.1689543 -1.3812535
2.2280691 -1.1656226 -1.3112452
2.726594 -0.97363538 -1.3313644
1.9442757 -1.0210832 -1.2960107
1.884307 -0.66462386 -1.3187248
1.5434573 -0.81610578 -1.2935828
1.4896768 -0.5194822 -1.2922645
1.2463903 -0.6652981 -1.2899199
1.2230195 -0.42076263 -1.3078004
1.0130067 -0.54546845 -1.2893145
0.99270511 -0.33690581 -1.2925408
0.85040361 -0.46092582 -1.2693371
nan nan nan
nan nan nan
nan nan nan
nan nan nan
nan nan nan
19.201138 -9.9887791 2.0654862
26.672977 -9.7054625 1.972409
19.336275 -10.059104 1.0148199
26.614067 -9.6945467 0.65680742
19.832264 -10.321589 0
17.910782 -6.5321717 -0.44182011
19.350483 -10.075082 -1.0157547
nan nan nan
12.993324 -6.7701035 -1.3379151
11.960975 -4.3631039 -1.4758341
8.9476166 -4.6653132 -1.4150592
7.8567982 -2.8653309 -1.4594761
4.4462433 -2.3249052 -1.4258827
6.4277549 -2.3421144 -1.5588449
3.6244426 -1.8987327 -1.3952719
3.2624974 -1.1811301 -1.3821868
2.2259405 -1.1744261 -1.3124139
2.7253115 -0.98391473 -1.3324194
1.9501677 -1.0328918 -1.3024393
1.8780643 -0.66980839 -1.3159367
1.5405991 -0.8214885 -1.2935828
1.4932803 -0.52658111 -1.2970804
1.2408495 -0.66790861 -1.2865028
1.2182662 -0.42389756 -1.3041977
1.0082251 -0.54743302 -1.2855335
0.9929837 -0.34086534 -1.2945082
0.84749293 -0.46317774 -1.2673223
nan nan nan
nan nan nan
nan nan nan
nan nan nan
nan nan nan
19.091684 -10.020912 2.0576363
26.646587 -9.8066025 1.973103
19.277166 -10.118299 1.0136553
26.62355 -9.8139505 0.65796798
nan nan nan
17.818718 -6.5727 -0.44013733
19.344372 -10.162206 -1.0173851
17.87463 -6.5933232 -1.3164593
12.914356 -6.7921233 -1.3324457
11.919273 -4.3974633 -1.4726591
8.9230661 -4.6961751 -1.4140142
7.8485541 -2.8949599 -1.4599075
4.4245329 -2.3352234 -1.4217557
6.4214144 -2.3664997 -1.5594029
3.6066782 -1.9071043 -1.3912063
3.2603247 -1.1938756 -1.3831201
2.2214146 -1.1829644 -1.3124139
2.7238162 -0.9946723 -1.3334743
1.9386284 -1.0363209 -1.2972965
1.8775499 -0.67738891 -1.3173307
1.5391884 -0.82834548 -1.2950904
1.4877274 -0.53076929 -1.2938697
1.2446842 -0.6761651 -1.2933369
1.2215388 -0.43028852 -1.3096018
1.008981 -0.55287939 -1.2893145
0.98875022 -0.34367165 -1.2905736
0.84837753 -0.46771774 -1.2713519
nan nan nan
nan nan nan
nan nan nan
nan nan nan
nan nan nan
18.973013 -10.043242 2.0485966
26.679981 -9.9247675 1.9781352
19.177725 -10.151639 1.010278
26.63302 -9.9178801 0.65901244
nan nan nan
17.741798 -6.6147833 -0.43880266
19.374981 -10.264741 -1.0208788
17.832811 -6.6487093 -1.3150781
12.856571 -6.8162484 -1.3287996
11.871274 -4.4269013 -1.468618
8.8943243 -4.7187753 -1.4119239
7.8360934 -2.9214792 -1.4594761
4.4167647 -2.3498828 -1.4217557
6.4085469 -2.3872006 -1.5582868
3.5919919 -1.9146014 -1.387954
3.2496107 -1.2028385 -1.3803202
2.2194259 -1.1913716 -1.3135827
2.7182009 -1.0033914 -1.3324194
1.9351811 -1.0427438 -1.2972965
1.8712724 -0.68252182 -1.3145427
1.5381843 -0.83439839 -1.2965981
1.4894738 -0.53725326 -1.2970804
1.2392368 -0.67852986 -1.2899199
1.2168362 -0.43318191 -1.305999
1.0071421 -0.55622226 -1.2893145
0.99197596 -0.34846893 -1.2964755
0.84544826 -0.46995336 -1.2693371
nan nan nan
nan nan nan
nan nan nan
nan nan nan
26.785894 -10.060066 3.488668
18.861004 -10.068383 2.040271
26.717546 -10.045039 1.9835143
19.056259 -10.172647 1.0057361
26.703503 -10.050394 0.66162366
nan nan nan
17.667145 -6.6572914 -0.43752611
19.477793 -10.406462 -1.0282158
17.83283 -6.7197075 -1.3168045
12.769036 -6.827034 -1.322191
11.839481 -4.4621859 -1.4665976
8.8734331 -4.7474566 -1.4112272
7.8373704 -2.9531524 -1.4616338
4.3894782 -2.3550506 -1.4155651
6.4001746 -2.4095559 -1.5582868
3.5707152 -1.9192854 -1.3822623
3.2410464 -1.2125522 -1.3784536
2.2171962 -1.2001653 -1.3147513
2.7210546 -1.0152447 -1.3355843
1.9296467 -1.0484668 -1.2960107
1.8669307 -0.68833441 -1.3131487
1.5317662 -0.83784366 -1.2935828
1.4785807 -0.53918272 -1.2890538
1.2368606 -0.68285143 -1.2899199
1.2087868 -0.43509397 -1.2987936
1.0066216 -0.56053382 -1.291205
0.98347777 -0.34937009 -1.2866389
0.84509158 -0.47362912 -1.2713519
nan nan nan
nan nan nan
nan nan nan
nan nan nan
26.8295 -10.183439 3.4989681
18.760008 -10.098763 2.0331349
nan nan nan
18.952471 -10.2024 1.0021259
26.682274 -10.148875 0.66197181
nan nan nan
17.608763 -6.705584 -0.43665567
19.489712 -10.500452 -1.0307778
19.18914 -7.3071823 -1.4190136
12.738552 -6.8680191 -1.3215072
11.795984 -4.4928846 -1.4631338
8.8263092 -4.7619386 -1.4063501
7.8362212 -2.9839947 -1.46336
4.3770041 -2.3680692 -1.4141895
6.3848906 -2.4292848 -1.5566124
3.5619161 -1.9306101 -1.3814492
3.2302842 -1.2214023 -1.3756539
2.2149322 -1.208958 -1.3159199
2.7068868 -1.0207475 -1.3303095
1.9278543 -1.0562284 -1.2972965
1.8703533 -0.69701308 -1.3173307
1.5270872 -0.84221971 -1.292075
1.4820879 -0.54631931 -1.2938697
1.2376556 -0.68894607 -1.2933369
1.2072607 -0.43931079 -1.2987936
1.00181 -0.56243563 -1.2874241
0.98806584 -0.3548688 -1.2945082
0.84729218 -0.47877195 -1.2773963
nan nan nan
nan nan nan
nan nan nan
nan nan nan
26.872568 -10.307239 3.509268
18.65028 -10.123811 2.0250471
26.847006 -10.30818 1.998437
18.833345 -10.223214 0.99770051
26.763336 -10.286777 0.66487312
nan nan nan
17.529263 -6.7454734 -0.43526304
19.472689 -10.579151 -1.031826
19.221708 -7.3965049 -1.4233298
12.699191 -6.9041166 -1.3199121
11.766322 -4.5286837 -1.4614019
8.8226795 -4.7998204 -1.4084404
7.825757 -3.0113299 -1.46336
4.3539453 -2.3752689 -1.4093746
6.3695474 -2.4489362 -1.554938
3.5468597 -1.9384918 -1.3781967
3.2238338 -1.2318444 -1.3747205
2.2068284 -1.2145475 -1.3135827
2.7096629 -1.0326059 -1.3334743
1.9241556 -1.0629514 -1.2972965
1.8640226 -0.70207995 -1.3145427
1.5258796 -0.84851688 -1.2935828
1.4801718 -0.55148953 -1.2938697
1.2304735 -0.69057345 -1.2882115
1.2073482 -0.44411677 -1.3005948
1.0041054 -0.56835687 -1.2930956
0.98536938 -0.35779357 -1.2925408
0.8391968 -0.47804448 -1.2673223
nan nan nan
nan nan nan
nan nan nan
nan nan nan
nan nan nan
18.555891 -10.156584 2.0186243
22.82781 -8.8569078 1.7011963
18.646402 -10.206143 0.98966479
26.773863 -10.398228 0.66603374
nan nan nan
17.454361 -6.7867012 -0.43398643
19.510103 -10.68786 -1.0357856
19.188801 -7.4608464 -1.4228119
12.655369 -6.9376297 -1.3178611
11.724982 -4.5598321 -1.458227
8.8123817 -4.8341613 -1.4094853
7.8220835 -3.0413036 -1.4646546
4.3393106 -2.3869743 -1.4073111
6.3518734 -2.4676285 -1.5527055
3.5359316 -1.9485768 -1.3765707
3.2238429 -1.2447577 -1.3765872
2.2064383 -1.2243916 -1.3159199
2.7018106 -1.0404328 -1.3313644
1.9223053 -1.0707067 -1.2985821
1.8557391 -0.7063756 -1.3103607
1.5246465 -0.85481578 -1.2950904
1.4728534 -0.55463654 -1.2890538
1.2264687 -0.69396257 -1.2865028
1.2106694 -0.45012933 -1.305999
0.99927783 -0.57022995 -1.2893145
0.98701382 -0.36228511 -1.2964755
0.83752298 -0.48097089 -1.2673223
nan nan nan
nan nan nan
nan nan nan
nan nan nan
nan nan nan
18.454962 -10.185212 2.011488
22.743349 -8.9156084 1.6972053
18.540701 -10.23255 0.98593813
nan nan nan
nan nan nan
17.402647 -6.8366237 -0.43329009
nan nan nan
19.097639 -7.5022554 -1.4179777
12.596214 -6.9624872 -1.3142149
11.70206 -4.5980091 -1.457361
8.7737932 -4.8529062 -1.4060018
7.8045435 -3.0658903 -1.46336
4.3225474 -2.3974402 -1.4045599
6.3545647 -2.4942334 -1.5554961
3.5249765 -1.9586087 -1.3749444
3.2151554 -1.2543207 -1.3747205
2.200223 -1.2310052 -1.3147513
2.6981623 -1.0498576 -1.3313644
1.9148197 -1.0753067 -1.2960107
1.8532621 -0.71284896 -1.3103607
1.5199187 -0.85914874 -1.2935828
1.4780781 -0.56248796 -1.295475
1.2256224 -0.69914687 -1.2882115
1.1993459 -0.45071694 -1.2951908
1.0001131 -0.57535297 -1.2930956
0.98284751 -0.36466399 -1.2925408
0.83711767 -0.48463687 -1.2693371
nan nan nan
nan nan nan
nan nan nan
nan nan nan
nan nan nan
18.354059 -10.213261 2.0043516
22.614698 -8.9563837 1.6899174
18.511415 -10.300849 0.98628753
23.01091 -9.1225414 0.57388687
nan nan nan
17.357769 -6.8890338 -0.43276787
21.64501 -12.054883 -1.1537585
18.985559 -7.5348434 -1.4115896
12.539219 -6.9882302 -1.3107967
11.69517 -4.6424918 -1.4585155
8.7308559 -4.8690276 -1.4018214
7.8029504 -3.0967455 -1.4650862
4.3015685 -2.4054697 -1.4004327
6.3390231 -2.5137076 -1.5538218
3.5284276 -1.9766842 -1.3790098
3.2107575 -1.2655361 -1.3747205
2.1978366 -1.2397654 -1.3159199
2.6902611 -1.0576148 -1.3292545
1.9147836 -1.0841007 -1.2985821
1.8507625 -0.7193138 -1.3103607
1.5134479 -0.8624692 -1.2905674
1.4707355 -0.56559002 -1.2906592
1.221594 -0.70250797 -1.2865028
1.2010094 -0.45612392 -1.2987936
0.99668574 -0.57801646 -1.291205
0.98301476 -0.36862975 -1.2945082
0.83414483 -0.48680615 -1.2673223
nan nan nan
nan nan nan
nan nan nan
nan nan nan
nan nan nan
18.259699 -10.244382 1.997929
22.504562 -9.0037785 1.6840177
18.33379 -10.285966 0.9787178
22.872913 -9.1649961 0.57127565
nan nan nan
17.333616 -6.9495821 -0.43276787
21.59844 -12.127924 -1.1535255
18.924419 -7.5871525 -1.4089999
12.49616 -7.0243788 -1.3089736
11.605133 -4.6537251 -1.449279
8.6719618 -4.8779263 -1.3952024
7.7898068 -3.1230481 -1.4646546
4.282259 -2.4153113 -1.3969936
6.3211598 -2.532198 -1.5515893
3.5170441 -1.9872752 -1.3773838
3.1933885 -1.2715976 -1.3691208
2.1875181 -1.2445288 -1.3124139
2.6844456 -1.0661645 -1.3281996
1.9052153 -1.087916 -1.2947249
1.8482403 -0.72576982 -1.3103607
1.5120043 -0.86900669 -1.292075
1.4651769 -0.56933868 -1.2874485
1.2190108 -0.70698059 -1.2865028
1.202569 -0.4617579 -1.3023963
0.99456048 -0.58166552 -1.291205
0.98454505 -0.37331516 -1.2984428
0.83498722 -0.49122345 -1.2713519
nan nan nan
nan nan nan
nan nan nan
nan nan nan
nan nan nan
18.15489 -10.273237 1.9905548
22.355803 -9.0394678 1.6753416
18.358994 -10.388766 0.98209506
22.714067 -9.1981239 0.56814218
nan nan nan
17.328876 -7.0215106 -0.43329009
21.621206 -12.245163 -1.1571358
18.843315 -7.6349277 -1.4050289
12.450841 -7.0590792 -1.3069226
11.592601 -4.6980934 -1.4498563
8.6497183 -4.9072332 -1.3945057
7.7760253 -3.1506541 -1.4642231
4.2671113 -2.427422 -1.39493
6.3186135 -2.55809 -1.5532637
3.5138431 -2.0024955 -1.3790098
3.195163 -1.2858864 -1.3719207
2.1867738 -1.2547414 -1.3147513
2.6889367 -1.0793661 -1.3324194
1.8937877 -1.0906036 -1.2895821
1.8513576 -0.73482782 -1.3145427
1.510533 -0.8755452 -1.2935828
1.4702208 -0.57749468 -1.2938697
1.2227063 -0.71514136 -1.2933369
1.1976335 -0.46491548 -1.2987936
0.99523592 -0.58697581 -1.2949861
0.97740197 -0.37473005 -1.2905736
0.83445185 -0.49503949 -1.2733667
nan nan nan
nan nan nan
nan nan nan
nan nan nan
nan nan nan
18.067043 -10.306945 1.9848456
22.294096 -9.1051941 1.6730859
18.266224 -10.420609 0.97906715
22.620977 -9.2478657 0.56657547
nan nan nan
17.313515 -7.0857425 -0.43352219
21.593512 -12.329224 -1.157951
18.772692 -7.682714 -1.4017485
12.438171 -7.1065054 -1.308062
11.511778 -4.7122025 -1.4417744
8.6033134 -4.9186816 -1.3896286
7.7649808 -3.1777785 -1.4642231
4.2569537 -2.4403627 -1.3942423
6.3028774 -2.5773659 -1.5515893
3.4989858 -2.0094233 -1.3757576
3.190655 -1.2970316 -1.3719207
2.1787767 -1.2597699 -1.3124139
2.6893547 -1.090445 -1.3345293
1.8994272 -1.1022685 -1.2960107
1.8468541 -0.74051619 -1.3131487
1.5076213 -0.88054955 -1.2935828
1.4681959 -0.58262318 -1.2938697
1.2171869 -0.71733284 -1.2899199
1.2009314 -0.47077093 -1.3041977
0.98766696 -0.58691651 -1.2874241
0.97903448 -0.37907431 -1.2945082
0.82764691 -0.49489573 -1.2653074
nan nan nan
nan nan nan
nan nan nan
nan nan nan
nan nan nan
17.969847 -10.326448 1.9777095
22.259171 -9.1771736 1.6727389
18.168785 -10.445023 0.97568983
22.509319 -9.289465 0.56454456
nan nan nan
17.339682 -7.1601248 -0.43474078
21.535194 -12.390798 -1.1570194
18.686218 -7.7159586 -1.3970871
12.442582 -7.1638656 -1.3110245
11.545121 -4.7682419 -1.4478358
8.5655079 -4.9348216 -1.386145
7.7549586 -3.202157 -1.4642231
4.2488375 -2.4544659 -1.3942423
6.2970028 -2.598083 -1.5521474
3.4963942 -2.0233855 -1.3773838
3.184418 -1.3061705 -1.3709874
2.1650445 -1.2614163 -1.3065705
2.6775217 -1.095463 -1.3303095
1.8883629 -1.1042238 -1.2908678
1.8502932 -0.74864179 -1.3173307
1.5099968 -0.88832778 -1.2981057
1.4663584 -0.58723271 -1.2938697
1.2133597 -0.72021872 -1.2882115
1.1945238 -0.47284818 -1.2987936
0.98862147 -0.59170341 -1.291205
0.97064614 -0.3793627 -1.2846714
0.83241582 -0.50133026 -1.2753816
nan nan nan
nan nan nan
nan nan nan
nan nan nan
nan nan nan
17.873743 -10.358542 1.9712867
22.148716 -9.22223 1.6668391
18.071718 -10.473313 0.97242898
22.437534 -9.3516388 0.56355804
nan nan nan
17.361763 -7.243834 -0.43595934
21.493969 -12.467147 -1.1571358
18.623285 -7.7699943 -1.3944973
12.402429 -7.198504 -1.3094294
11.497771 -4.7980981 -1.4440835
8.535387 -4.9572277 -1.3840548
7.7522612 -3.2343488 -1.4659492
4.2319384 -2.4644401 -1.3914909
6.2829385 -2.6192713 -1.5510311
3.4791026 -2.0296159 -1.3733182
3.1796091 -1.3178331 -1.3709874
2.1682465 -1.2734501 -1.3112452
2.6755841 -1.1061335 -1.3313644
1.8918803 -1.1151718 -1.2960107
1.8379269 -0.75150448 -1.3103607
1.5033064 -0.89181107 -1.2950904
1.4606407 -0.59117174 -1.2906592
1.2122761 -0.72560132 -1.2899199
1.1944771 -0.47765478 -1.3005948
0.98225051 -0.59277707 -1.2855335
0.97212213 -0.3840425 -1.2886062
0.82552183 -0.50128984 -1.2673223
nan nan nan
nan nan nan
nan nan nan
nan nan nan
nan nan nan
17.768719 -10.380692 1.9636747
22.017527 -9.2579298 1.6593778
17.978989 -10.503572 0.96940106
22.34025 -9.4027615 0.56193328
nan nan nan
17.387049 -7.325737 -0.43723595
21.301577 -12.455111 -1.1491001
18.531693 -7.8078489 -1.3896631
12.430942 -7.2731919 -1.3151265
11.53359 -4.8603735 -1.4507222
8.4966688 -4.9744787 -1.380571
7.7341156 -3.2585235 -1.4646546
4.2274551 -2.4816329 -1.3928666
6.2760038 -2.6421318 -1.5515893
3.4638484 -2.0369499 -1.3700659
3.1621494 -1.3235607 -1.3653878
2.1580861 -1.2776282 -1.3077393
2.6758912 -1.1172087 -1.3334743
1.8879761 -1.121769 -1.2960107
1.84105 -0.76028389 -1.3145427
1.5001842 -0.89705312 -1.2950904
1.4603436 -0.5969888 -1.2922645
1.2128578 -0.73171997 -1.2933369
1.1911937 -0.48117596 -1.2987936
0.98575759 -0.59961611 -1.2930956
0.96790671 -0.38629875 -1.2846714
0.82628703 -0.50572121 -1.2713519
nan nan nan
nan nan nan
nan nan nan
nan nan nan
nan nan nan
17.674807 -10.412897 1.95749
21.866373 -9.288847 1.6505282
17.884432 -10.536433 0.96637309
22.200487 -9.4444561 0.55932212
nan nan nan
17.422174 -7.4158363 -0.43880266
20.997652 -12.380875 -1.135125
18.457052 -7.8561883 -1.3862101
12.37291 -7.3031483 -1.3119361
11.481422 -4.8880291 -1.4463927
8.4732447 -5.0045485 -1.3798745
7.7266526 -3.2887759 -1.4655176
4.2137594 -2.4953952 -1.3914909
6.2505779 -2.6584458 -1.5476824
3.4620988 -2.0538568 -1.3725051
3.1594136 -1.3360434 -1.366321
2.1550608 -1.28704 -1.308908
2.6696894 -1.1261301 -1.3324194
1.8854928 -1.1301143 -1.2972965
1.8440002 -0.76941609 -1.3187248
1.4950225 -0.90177435 -1.2935828
1.4528276 -0.60015178 -1.2874485
1.2038099 -0.73256475 -1.2865028
1.1925499 -0.48704946 -1.3023963
0.98066342 -0.60167903 -1.2893145
0.9692809 -0.39115813 -1.2886062
0.82442796 -0.50874633 -1.2713519
nan nan nan
nan nan nan
27.289804 -11.670894 5.7196126
nan nan nan
27.228397 -11.667109 3.6119649
17.582718 -10.441486 1.9513052
21.675661 -9.2973003 1.6385553
17.735897 -10.532479 0.96031731
22.045021 -9.4647903 0.55618864
nan nan nan
17.467371 -7.5071907 -0.44060156
20.80834 -12.367315 -1.1272058
18.363064 -7.8920174 -1.3812032
12.361461 -7.3517756 -1.3133034
11.464292 -4.9280772 -1.4463927
8.4417124 -5.0237536 -1.3774359
7.7151251 -3.3157268 -1.4655176
4.2033978 -2.5081224 -1.3908031
6.2345414 -2.6773658 -1.546008
3.4471552 -2.0604703 -1.3692528
3.1483297 -1.3443359 -1.3635212
2.1488883 -1.2930382 -1.3077393
2.6740863 -1.1389875 -1.3366393
1.8799006 -1.1352502 -1.2960107
1.8355625 -0.77343857 -1.3145427
1.4920239 -0.90672708 -1.2935828
1.4542639 -0.60668868 -1.2906592
1.2044823 -0.73846644 -1.2899199
1.1829073 -0.48771667 -1.2933893
0.9772734 -0.60406429 -1.2874241
0.96654814 -0.39379263 -1.2866389
0.82390147 -0.51240641 -1.2733667
nan nan nan
nan nan nan
27.235378 -11.760244 5.7167711
nan nan nan
27.137396 -11.740409 3.6053002
17.486378 -10.467003 1.9446446
21.501177 -9.3114719 1.627797
17.574751 -10.519921 0.95356268
21.892601 -9.4900064 0.55317122
nan nan nan
17.480038 -7.5850253 -0.44158801
20.666502 -12.380829 -1.1218487
18.303371 -7.9421735 -1.3787861
12.316506 -7.3833575 -1.3112524
11.435626 -4.9631238 -1.4449493
8.4092646 -5.0442724 -1.3749971
7.7080235 -3.3445966 -1.4663808
4.1946173 -2.5227797 -1.3908031
6.2229218 -2.6981437 -1.5454499
3.44399 -2.0749326 -1.3708789
3.1478791 -1.3571509 -1.3653878
2.1462502 -1.3016793 -1.308908
2.6680112 -1.1474211 -1.3355843
1.8777567 -1.142922 -1.2972965
1.8347622 -0.78065109 -1.3159367
1.4922478 -0.91401768 -1.2965981
1.4486024 -0.61027962 -1.2874485
1.1956941 -0.73881716 -1.2830858
1.1827996 -0.49250537 -1.2951908
0.97099972 -0.60486686 -1.2817526
0.96659595 -0.39774671 -1.2886062
0.81960446 -0.51369971 -1.2693371
nan nan nan
nan nan nan
nan nan nan
nan nan nan
27.098314 -11.830335 3.6053002
17.402262 -10.491043 1.9389354
21.447329 -9.372736 1.6260618
17.458513 -10.529125 0.94913727
21.664078 -9.4764318 0.54818094
nan nan nan
17.508789 -7.6629448 -0.44292265
20.552645 -12.405412 -1.1178892
18.25091 -7.987639 -1.3767142
12.266384 -7.40871 -1.3085178
11.399503 -4.9900665 -1.4423515
8.3924913 -5.0721307 -1.3749971
7.692965 -3.366822 -1.4655176
4.1841736 -2.5354292 -1.3901153
6.2144151 -2.7176802 -1.5454499
3.43103 -2.0826588 -1.3684397
3.147855 -1.36888 -1.3672543
2.134383 -1.304173 -1.3042333
2.6664734 -1.1566975 -1.3366393
1.8721298 -1.1480198 -1.2960107
1.8227599 -0.78233194 -1.3089666
1.4910619 -0.91975594 -1.2981057
1.4502084 -0.61632037 -1.2906592
1.1964626 -0.74450421 -1.2865028
1.1827595 -0.49709284 -1.2969921
0.97324574 -0.61053246 -1.2874241
0.95963562 -0.39843303 -1.2807368
0.8192358 -0.51706564 -1.2713519
nan nan nan
nan nan nan
nan nan nan
nan nan nan
nan nan nan
17.314783 -10.525019 1.9334644
21.405352 -9.4435186 1.6253678
17.359772 -10.552379 0.94575995
21.555414 -9.5186863 0.54626602
nan nan nan
17.542307 -7.7543406 -0.44448936
20.453749 -12.443326 -1.1148611
18.495258 -8.1754436 -1.3974323
12.189417 -7.4204063 -1.3030486
11.360695 -5.0227809 -1.4397537
8.3683939 -5.0975294 -1.3739522
7.6805735 -3.3949955 -1.4655176
4.1793985 -2.5525265 -1.3914909
6.1999526 -2.7384715 -1.5443337
3.4197073 -2.0921526 -1.3668135
3.1406925 -1.3794773 -1.366321
2.1354597 -1.3150972 -1.3077393
2.6642928 -1.1673704 -1.3376942
1.8662883 -1.1534187 -1.2947249
1.8217854 -0.78983033 -1.3103607
1.4843 -0.92309839 -1.2950904
1.4426523 -0.6193729 -1.2858434
1.1937258 -0.74888444 -1.2865028
1.1794198 -0.50054497 -1.2951908
0.96686012 -0.61146224 -1.2817526
0.95959324 -0.40253994 -1.2827042
0.81484258 -0.51846838 -1.2673223
nan nan nan
nan nan nan
nan nan nan
nan nan nan
nan nan nan
17.222767 -10.551585 1.9272795
21.287958 -9.480648 1.6189474
17.290892 -10.593338 0.94401306
21.480963 -9.5755577 0.54522157
nan nan nan
17.56535 -7.8379273 -0.44576597
20.361225 -12.48462 -1.1121826
18.657936 -8.3252993 -1.411935
12.144344 -7.4511895 -1.3009976
11.329486 -5.0563378 -1.4380219
8.3378925 -5.1189356 -1.3718619
7.6686759 -3.4217851 -1.4655176
4.1643248 -2.5633173 -1.3894273
6.1725483 -2.7521644 -1.5398686
3.40836 -2.1015933 -1.3651873
3.1294954 -1.3876163 -1.3635212
2.1214728 -1.3167073 -1.3018959
2.6560545 -1.1748337 -1.3355843
1.8640695 -1.1610618 -1.2960107
1.8152128 -0.79452568 -1.3075727
1.4793805 -0.92721236 -1.2935828
1.4422413 -0.62516397 -1.2874485
1.1926454 -0.75402504 -1.2882115
1.1824504 -0.50669587 -1.3005948
0.96747446 -0.61659855 -1.2855335
0.96102679 -0.40708163 -1.2866389
0.8130278 -0.52130955 -1.2673223
nan nan nan
nan nan nan
nan nan nan
nan nan nan
nan nan nan
17.118349 -10.574089 1.9199054
21.12114 -9.4992895 1.6088834
17.175467 -10.609386 0.93982059
21.386463 -9.6275558 0.54371285
nan nan nan
17.620817 -7.9402356 -0.44791296
20.274973 -12.534208 -1.1099699
18.759188 -8.4530401 -1.4219488
12.078846 -7.4720693 -1.2968956
11.285971 -5.0866089 -1.4348469
8.3253889 -5.1533718 -1.372907
7.6426105 -3.4438031 -1.4629284
4.1589851 -2.5811 -1.3908031
6.1557522 -2.77177 -1.5381942
3.4046488 -2.1165698 -1.3668135
3.1265061 -1.4000236 -1.3644545
2.1203775 -1.3268224 -1.3042333
2.653801 -1.1854832 -1.3366393
1.8579869 -1.1667438 -1.2947249
1.8103893 -0.80033696 -1.3061787
1.4776565 -0.93369597 -1.2950904
1.4381833 -0.6296804 -1.2858434
1.185262 -0.75543964 -1.2830858
1.1774002 -0.50965667 -1.2969921
0.96245986 -0.61836517 -1.2817526
0.95952827 -0.41060126 -1.2866389
0.81359279 -0.5259003 -1.2713519
nan nan nan
nan nan nan
nan nan nan
nan nan nan
nan nan nan
17.039082 -10.60747 1.9151477
20.949318 -9.510087 1.5982985
17.170128 -10.689077 0.94156748
21.27536 -9.6670055 0.54173994
nan nan nan
17.636225 -8.0213509 -0.4490155
20.248053 -12.615473 -1.1109016
18.6887 -8.4998903 -1.418841
12.023116 -7.4957428 -1.2937053
11.247803 -5.1167226 -1.4322491
8.3073492 -5.1824012 -1.372907
7.6417532 -3.4755547 -1.4650862
4.1438379 -2.5917754 -1.3887395
6.1416011 -2.7912259 -1.5370779
3.3932345 -2.1259289 -1.3651873
3.125828 -1.4128357 -1.366321
2.1176012 -1.3353962 -1.3054019
2.6537807 -1.196599 -1.3387492
1.8647658 -1.1801134 -1.3024393
1.8075845 -0.80665159 -1.3061787
1.4643046 -0.93240702 -1.2860444
1.4447483 -0.63855457 -1.2938697
1.1841516 -0.7605617 -1.2847944
1.1803844 -0.51583469 -1.3023963
0.96440852 -0.62439829 -1.2874241
0.95525324 -0.41273326 -1.2827042
0.81298983 -0.52954853 -1.2733667
nan nan nan
nan nan nan
nan nan nan
nan nan nan
nan nan nan
17.037788 -10.689372 1.9191917
20.782215 -9.5218792 1.5880607
17.232128 -10.811336 0.94704103
21.086992 -9.6703815 0.53779411
nan nan nan
17.680805 -8.1162195 -0.45087236
20.284256 -12.736544 -1.115327
18.627182 -8.5505114 -1.4164239
11.969476 -7.520443 -1.2907428
11.227615 -5.1549177 -1.4319605
8.285018 -5.2087317 -1.3722104
7.6139064 -3.4950213 -1.4620655
4.1286678 -2.6023769 -1.3866761
6.1185284 -2.8065557 -1.5337292
3.3817966 -2.1352344 -1.3635612
3.1145451 -1.4208553 -1.3635212
2.1129272 -1.34278 -1.3054019
2.6433961 -1.2030442 -1.3355843
1.8552155 -1.183151 -1.2985821
1.8066511 -0.813806 -1.3075727
1.4660714 -0.94075084 -1.2905674
1.4407589 -0.64281619 -1.2922645
1.1799592 -0.7636959 -1.2830858
1.1754013 -0.51855999 -1.2987936
0.95948732 -0.62596655 -1.2836431
0.9538067 -0.41606519 -1.2827042
0.8074317 -0.52993566 -1.2673223
nan nan nan
nan nan nan
nan nan nan
nan nan nan
nan nan nan
17.149282 -10.834575 1.9356052
20.761848 -9.595974 1.5889285
17.282726 -10.923132 0.95181578
20.880136 -9.6594715 0.53332597
nan nan nan
17.750488 -8.215807 -0.45330951
20.391745 -12.898535 -1.1235956
18.530058 -8.5765209 -1.4110717
11.915023 -7.5414491 -1.2875524
11.20235 -5.1859937 -1.4308058
8.2676992 -5.236177 -1.3722104
7.6162992 -3.5251257 -1.4646546
4.1200156 -2.6160538 -1.3866761
6.0941963 -2.8186088 -1.5298223
3.3786852 -2.1489763 -1.3651873
3.1184969 -1.4345034 -1.3672543
2.1047423 -1.3473928 -1.3030646
2.6457863 -1.2141731 -1.3387492
1.8530846 -1.1904573 -1.2998679
1.8003042 -0.81776637 -1.3047847
1.4647791 -0.94644201 -1.292075
1.4369831 -0.64655602 -1.2906592
1.1821357 -0.77039713 -1.2882115
1.1736753 -0.52245486 -1.2987936
0.96297628 -0.63258362 -1.291205
0.95532268 -0.42029327 -1.2866389
0.80945981 -0.53492874 -1.2733667
nan nan nan
nan nan nan
nan nan nan
nan nan nan
nan nan nan
17.220701 -10.968226 1.9482127
20.712402 -9.6610098 1.5877138
17.320316 -11.031696 0.95600832
20.805525 -9.7132711 0.53228152
17.010403 -10.838434 0
nan nan nan
20.388712 -12.996488 -1.1259248
18.453308 -8.6232672 -1.4076188
11.871836 -7.5722818 -1.2857293
11.178767 -5.2249155 -1.4302285
8.2535439 -5.2676697 -1.372907
7.5899405 -3.5467663 -1.4620655
4.1108584 -2.6304193 -1.3866761
6.0882416 -2.8429866 -1.5309386
3.3612154 -2.1543729 -1.3611219
3.10901 -1.4439731 -1.3653878
2.1055939 -1.3583307 -1.3065705
2.6351464 -1.2210093 -1.3355843
1.8543134 -1.2004199 -1.303725
1.80107 -0.82608455 -1.3075727
1.462973 -0.95288992 -1.2935828
1.4380963 -0.65339762 -1.2938697
1.1716866 -0.76969999 -1.2796689
1.1734272 -0.5272553 -1.3005948
0.95384252 -0.6315766 -1.2817526
0.95377576 -0.42379186 -1.2866389
0.80380589 -0.53541934 -1.2673223
nan nan nan
nan nan nan
nan nan nan
nan nan nan
nan nan nan
17.243042 -11.067261 1.955111
20.577003 -9.6854658 1.5799053
17.351053 -11.136611 0.95985144
20.73984 -9.7709274 0.53146911
16.966154 -10.893691 0
20.623388 -9.7248793 -0.52857095
20.383141 -13.093225 -1.1281375
18.40279 -8.6780567 -1.4060647
11.822296 -7.598865 -1.2832226
11.151477 -5.2596693 -1.4290739
8.2288609 -5.292429 -1.3718619
7.5797415 -3.5742884 -1.4624969
4.0996323 -2.6434495 -1.3859882
6.0452085 -2.8486516 -1.5225667
3.3516893 -2.164809 -1.3603088
3.1060512 -1.4557993 -1.366321
2.0989881 -1.3644661 -1.3054019
2.6329222 -1.2311583 -1.3366393
1.8411398 -1.2010186 -1.2972965
1.7925218 -0.82975888 -1.3033906
1.4563066 -0.95579755 -1.2905674
1.4358068 -0.65841353 -1.2938697
1.1735528 -0.77681601 -1.2847944
1.1715796 -0.53134811 -1.3005948
0.95570785 -0.63763583 -1.2874241
0.95370018 -0.42774552 -1.2886062
0.80315846 -0.53905046 -1.2693371
nan nan nan
nan nan nan
nan nan nan
nan nan nan
nan nan nan
17.306826 -11.197992 1.9670049
20.410709 -9.6987514 1.5698411
17.343664 -11.221841 0.96171486
20.654772 -9.8279448 0.53025055
16.903028 -10.940858 0
20.571812 -9.7928839 -0.52816474
nan nan nan
18.395634 -8.7572374 -1.407964
11.759609 -7.6225309 -1.2795763
11.12764 -5.2983718 -1.4284966
8.2043257 -5.321291 -1.3711653
7.5665903 -3.6020453 -1.4624969
4.0854235 -2.656549 -1.3846126
6.0325255 -2.8697431 -1.5220085
3.3393919 -2.1750796 -1.3586825
3.0923059 -1.4632121 -1.3625878
2.1011221 -1.377369 -1.3100766
2.6222405 -1.2379029 -1.3334743
1.8436743 -1.2128001 -1.3024393
1.7951125 -0.83895147 -1.3075727
1.4509646 -0.96027941 -1.2890598
1.4368652 -0.66527581 -1.2970804
1.1660129 -0.7782681 -1.2796689
1.1647978 -0.53368777 -1.2951908
0.95054233 -0.63946801 -1.2836431
0.9506436 -0.43077195 -1.2866389
0.79750717 -0.53949165 -1.2632927
nan nan nan
nan nan nan
nan nan nan
nan nan nan
nan nan nan
17.326336 -11.309553 1.9743792
20.291216 -9.746376 1.5637679
17.177193 -11.212188 0.95496023
20.504774 -9.857728 0.52740723
16.863331 -11.015667 0
20.379707 -9.8063784 -0.52427697
nan nan nan
18.327324 -8.8190804 -1.4055469
11.710165 -7.6574097 -1.2775254
11.094159 -5.3395538 -1.4270535
8.1881762 -5.3596797 -1.3722104
7.5625315 -3.6390438 -1.4646546
4.0622063 -2.6657209 -1.3804855
6.0182562 -2.8939316 -1.5214505
3.3263025 -2.1864498 -1.3570564
3.0900776 -1.4786901 -1.3644545
2.0898077 -1.3824948 -1.3065705
2.6209068 -1.2512821 -1.3355843
1.8314382 -1.2157613 -1.2972965
1.7895573 -0.84589177 -1.3061787
1.4502428 -0.96856844 -1.292075
1.4287375 -0.66911006 -1.2922645
1.1642545 -0.78416789 -1.2813774
1.165607 -0.54021549 -1.2987936
0.94650418 -0.64252186 -1.2817526
0.95577621 -0.43810815 -1.2964755
0.80124426 -0.54715776 -1.2733667
nan nan nan
nan nan nan
nan nan nan
nan nan nan
nan nan nan
17.363678 -11.420572 1.9831805
20.106152 -9.7396936 1.5519685
17.031549 -11.202082 0.9490208
20.321285 -9.8526316 0.52351946
16.889357 -11.112759 0
20.200911 -9.8029947 -0.52050519
16.691822 -10.986933 -0.93027377
18.214954 -8.8395281 -1.3991588
11.657681 -7.6783938 -1.274563
11.07639 -5.3763142 -1.4270535
8.1671648 -5.3826513 -1.3715136
7.5504222 -3.6641018 -1.4646546
4.0598259 -2.6824474 -1.3825492
6.0195918 -2.9191856 -1.5242411
3.3135047 -2.192971 -1.3546171
3.0770586 -1.4843661 -1.3607213
2.0854545 -1.3890532 -1.3065705
2.6128764 -1.2575475 -1.3334743
1.8276095 -1.2215089 -1.2972965
1.7850163 -0.85061949 -1.3047847
1.4405798 -0.96865922 -1.2860444
1.4248937 -0.6727801 -1.2906592
1.1602768 -0.78679448 -1.2796689
1.1671438 -0.54513121 -1.3023963
0.94178426 -0.6436395 -1.2779716
0.95026511 -0.4390142 -1.2905736
0.80073851 -0.5505144 -1.2753816
nan nan nan
nan nan nan
nan nan nan
nan nan nan
nan nan nan
17.390083 -11.525114 1.9907926
20.016012 -9.7824469 1.5476304
nan nan nan
20.154301 -9.8587236 0.52009583
16.929638 -11.224149 0
20.141876 -9.8613625 -0.51986688
16.607586 -11.014758 -0.92771167
18.22431 -8.9227924 -1.4022666
11.620439 -7.7121549 -1.2734234
11.044173 -5.4083948 -1.4253216
8.1483259 -5.4111271 -1.3715136
7.5552816 -3.6990931 -1.468107
4.0464373 -2.6939366 -1.3811734
6.0137434 -2.9423203 -1.5253574
3.30583 -2.2045238 -1.3546171
