# .PCD v.7 - Point Cloud Data file format
VERSION .7
FIELDS x y z
SIZE 4 4 4
TYPE F F F
COUNT 1 1 1
WIDTH 1306
HEIGHT 1
VIEWPOINT 0 0 0 1 0 0 0
POINTS 1306
DATA ascii
-3.68377256 -59.57678986 14.07023811
-3.80037069 41.79874039 55.13169861
-3.66038990 -40.67805481 26.21902084
-3.39309096 -0.32946894 69.81522369
-3.75220156 69.67539215 72.74744415
-3.65846562 34.30016708 35.32157898
-2.44751310 -80.89795685 62.52161407
-3.75646234 58.96067429 65.47220612
-3.72545791 53.96246338 59.98416901
-3.18975282 -69.82736969 2.58032465
-2.94880056 -80.38397980 47.43725967
-3.15417314 36.70889664 62.67935944
-3.26846123 -69.94372559 4.23151064
-3.28827429 -29.92970085 26.51103210
-3.68339634 31.93339539 34.15979004
-3.54451799 -60.54792404 10.18339825
-3.65607500 63.36263657 68.41914368
-3.18431759 -67.99166107 1.44145811
-3.57341146 45.21184921 55.65702438
-3.63083911 73.56999969 77.92705536
-3.62136006 60.05170059 63.15481186
-3.58012128 45.46908951 61.58506775
-2.45855570 11.01006699 30.04895401
-3.54116130 -79.73995209 57.46189499
-3.23766255 -64.28781891 45.60849762
-3.59259892 68.62101746 73.31806183
-3.57808614 65.60967255 67.28098297
-3.22547817 -39.97399521 28.72640038
-2.82015705 7.89692116 30.02362061
-3.55305028 -66.08554077 2.00097322
-3.40023303 -77.38059235 51.00079346
-3.45302749 81.14069366 84.54126740
-3.29085207 -66.29131317 9.60317421
-3.47403955 24.68783379 30.72151947
-3.10334778 -84.09037018 49.84686661
-3.03761530 -54.64338303 41.54718399
-2.12766576 -74.47619629 46.09035110
-3.48129272 70.22666168 71.72390747
-3.49159789 72.98011017 79.00131226
-2.49344730 2.74396062 30.32309151
-3.21513295 -36.43413925 26.17356110
-3.25164104 -63.16183853 11.37314892
-3.08997822 -61.57852554 10.27135849
-3.01431870 -36.42775345 27.04077911
-3.19811082 51.06261063 57.82145691
-3.31781650 -79.83717346 56.91304779
-2.18715739 -56.69274139 43.02550888
-3.32079601 -81.08911133 55.87619019
-3.35662556 29.62957573 32.50918198
-2.96065044 -58.01405334 44.27611542
-2.61728549 -82.36643219 56.44641495
-3.31304264 74.22077179 77.06352234
-2.93804026 -76.71229553 50.30497742
-2.99589348 -82.64825439 53.52304459
-3.38125610 77.57756805 83.28810883
-3.37437010 32.22254944 33.80449295
-3.34102416 88.31896973 88.36174011
-2.67035794 -64.01329041 6.44873047
-2.96429706 48.01774216 56.02620697
-3.03175521 -75.18189240 49.51070786
-2.70016170 -41.75415421 65.93756866
-3.29226351 94.71137238 90.29808807
-2.59621763 -25.78667068 26.44152260
-2.21404219 -81.57460785 48.00942230
-3.16549587 -61.71448517 11.37051964
-3.24621487 52.14747238 63.56985092
-2.94520855 -81.57161713 55.11589050
-3.27046132 82.63817596 86.76977539
-2.83042622 -75.01491547 49.15538406
-3.22510195 78.84548187 81.53086853
-2.06167340 -80.22380066 45.97710037
-3.37037921 -80.08000946 55.79681396
-3.19992876 88.10491943 89.44331360
-2.78426743 -79.41387939 49.58095169
-2.66700554 -82.76219940 47.37446976
-2.80989623 39.10414124 52.42200470
-2.31321192 -51.02954483 36.02453232
-1.72220063 37.41650009 45.78845215
-2.84057331 -32.56795883 26.75445938
-3.14242077 58.07529449 66.31362915
-3.15972733 93.65045166 91.17229462
-2.74401927 39.78844833 53.21427917
-3.11723256 83.67280579 84.93041992
-3.05163574 102.88838959 92.02835083
-3.17513704 41.62173843 54.49709702
-3.06911945 99.45642090 92.00073242
-1.65087819 -53.73082733 40.08656311
-2.72272921 41.77505493 62.49130630
-2.85219336 -68.08028412 7.38686371
-2.73862815 -76.36525726 46.21769714
-3.05406690 88.72592163 87.48772430
-2.53391647 -63.94034195 9.31682205
-3.03773069 62.95059204 69.55725098
-3.01669312 93.97388458 89.20175171
-2.98586273 55.19266891 59.42265320
-2.31734800 13.71951008 30.23875809
-2.96993184 67.73489380 74.04198456
-2.20744419 -82.01933289 47.07190704
-2.92745757 100.40409851 90.24485016
-2.52692604 -63.31544876 7.68309164
-2.85666037 24.77622795 31.49908638
-2.51371479 -67.12301636 2.02425432
-2.90657544 71.72914124 79.38674164
-2.80298138 103.92364502 93.28038025
-2.92837381 60.52264023 62.31557465
-2.02340174 -80.24304962 48.06381607
-2.52232289 -64.33484650 6.85032272
-2.71369195 45.89346313 55.14688492
-2.24331069 -54.62957001 66.34991455
-2.88017678 66.15539551 66.56188202
-2.16420698 36.71708679 42.10963440
-2.22961783 -65.94285583 3.09326291
-2.78939557 70.99140930 71.19882965
-2.81311369 76.89399719 84.15263367
-2.67533040 -48.11668396 65.69505310
-2.53009582 30.22550583 33.31661987
-2.48218870 -68.92138672 5.56753635
-2.55084896 104.98271179 92.97136688
-2.49335670 -12.51959038 68.95993805
-2.52223802 -19.78567123 67.79371643
-2.70831847 82.13090515 87.69249725
-2.65164971 -35.58028793 27.31639862
-2.81014347 -46.77251816 31.81329918
-2.47891951 -68.72209167 2.43342924
-2.60153794 104.47753143 91.76782990
-2.43858242 -69.16184235 4.06980371
-2.79491115 -22.46352196 26.86003494
-2.64503717 75.09587860 76.84983826
-2.20141888 34.76060104 37.26672363
-2.37446928 -67.10168457 6.73308182
-2.65753031 87.69154358 90.38571930
-2.62185788 93.48257446 92.18170166
-1.34023046 -13.80171776 28.80892944
-2.56719232 99.24541473 92.89228058
-2.28561687 -77.99014282 49.08425903
-2.55924511 45.24840927 62.58631134
-2.54789376 79.67094421 81.14239502
-1.96232235 -84.35886383 50.37451172
-2.53427458 -65.05783081 7.94738483
-2.47427654 -77.89664459 51.17957687
-1.47049832 -10.87523937 29.45895004
-2.46162724 83.75730896 84.06303406
-0.79826099 -7.72112465 29.85029793
-2.13866591 -75.79547882 50.02452469
-2.39251781 103.26340485 93.98175812
-1.74398828 19.65268898 31.53092766
-2.08619809 -79.93992615 50.13930130
-2.23410034 33.51580048 35.62672424
-2.42613482 89.18031311 86.89742279
-1.45370233 -60.98034286 67.82544708
-1.61382318 -85.19609070 50.89599609
-1.98420608 -2.08527398 30.26765442
-2.18528175 -64.08401489 8.13506985
-2.40587258 94.80339813 88.64223480
-2.20229459 27.20196915 32.60185623
-2.31240702 51.95621490 64.53836823
-1.36595750 -65.26551056 45.09546661
-2.18721676 -65.63711548 5.96261740
-2.35588527 100.00447083 89.45474243
-2.35472012 35.85779953 39.27130127
-2.07109785 -75.17095947 51.78002167
-2.07063198 31.85949135 34.40139389
-1.58439386 34.55713654 63.89264297
-2.09995508 -67.86742401 3.84859538
-2.38295913 41.48106003 53.95728302
-1.24174619 -51.15015411 66.36119080
-0.16590786 -43.14090729 29.90714073
-0.48985970 -80.41846466 63.50566483
-2.00886321 104.21027374 90.77442932
-2.26601005 51.30789948 57.08020020
-2.18266153 -82.83204651 55.20551682
-2.22363353 58.10216904 67.43931580
-1.36550653 -23.66514015 67.36867523
-2.23563933 -76.71681213 51.89913177
-0.99334717 -82.18977356 47.01728058
-2.14387274 62.53718948 70.43289185
-0.84199601 -57.51083374 67.02680206
-1.77429235 -75.76588440 50.68930435
-1.70472562 40.14972687 63.06293106
-1.11854017 -40.34700394 28.71176720
-2.04864311 55.42820358 58.68998337
-1.17511082 -31.46604538 65.73366547
-2.83853483 31.51539993 64.99031830
-2.09384942 67.23883057 74.87550354
-1.54322481 -77.40547180 49.25680542
-0.34496319 -83.02883911 56.92662430
-1.80832803 -28.82367134 65.95391846
-2.01781487 27.18673515 66.77381897
-0.94184941 22.52732849 68.27768707
-1.83148873 23.45094490 32.13331223
-2.07696009 70.89208984 79.77145386
-2.06469464 -71.91899109 51.40871429
-1.66345811 20.01083565 68.77776337
-2.08903742 48.47402954 55.70579529
-0.00962204 -35.60107422 65.70453644
-2.07489038 60.91782379 61.80407715
-1.99703646 76.42370605 84.93269348
-1.96902072 -73.52405548 52.31864929
-1.26904631 -38.00947189 27.83053017
-1.97365630 67.38092804 66.71171570
-1.61187780 14.82414436 69.56169128
-1.81499779 -76.29448700 49.95231628
-1.43652427 -84.38143158 48.52229309
-1.45006704 -68.97624969 45.63051605
-1.55605745 -62.27957916 45.23121643
-1.93352425 81.88080597 88.53637695
-1.40452194 37.52728653 63.34390640
-1.30992007 105.83858490 91.77727509
-1.90620828 71.86881256 71.36002350
-1.39345920 -85.09293365 50.34708786
-1.04853213 -58.32992172 43.84153748
-1.44662666 -80.89894104 45.79282379
-1.90018761 87.61360931 91.24398041
-1.86834407 -73.80080414 51.78843307
-1.08249414 -79.54302216 45.25393677
-0.16906258 -82.29615784 60.40174484
-1.87821555 93.37248230 92.97217560
-1.68398809 -45.40248871 65.75708008
-0.00146717 -70.39520264 69.76348877
-1.84029067 98.80464172 93.58382416
-0.08118308 -72.04184723 69.46100616
-1.82438052 74.82258606 75.54078674
-0.57591069 9.83677578 70.01100159
-1.80313134 76.88121796 77.89228821
-1.19687104 -35.27212143 27.07161713
0.01139688 -69.10036469 69.82733154
-1.41166496 -47.58547974 65.79230499
-1.73061538 103.71316528 94.70948792
-1.00195754 -31.98058128 26.54169655
-1.20510483 -19.27671051 68.14143372
-1.75182676 81.06502533 81.61792755
-0.53968167 -1.19846845 70.23443604
-1.85476720 105.75032043 92.75151062
-1.67575216 -71.70446014 50.91012192
-0.96657050 -84.65790558 49.56481171
-0.87468076 -81.91427612 47.95702744
-1.69150674 85.84833527 84.70941162
-0.22033858 -78.12120819 65.90862274
-1.51453292 35.40802765 39.54724121
-1.55275714 105.35024261 94.43875122
-1.12860405 -72.18180847 45.85089111
-0.06509543 -74.34013367 68.61873627
-1.66832960 90.60280609 86.89904785
-1.22962093 -74.42382050 50.90740585
-1.63607764 95.00781250 88.16156006
-1.63278389 100.64745331 89.11594391
-1.52199531 -78.63313293 49.04664612
-1.57770097 -80.96347809 47.92663956
-0.03470320 -81.49341583 61.97908020
-1.48530829 -76.89755249 50.42107773
-1.18497646 -84.04383850 50.81538773
-1.43682003 -72.38980103 52.06959915
-1.45156085 43.78512192 63.06375504
-0.82266325 -72.50009155 50.00242996
-1.42456841 46.58730698 63.54059982
0.03147280 -42.77994156 65.85632324
-1.21898055 33.93482590 37.43708420
-1.06954777 -79.94163513 47.82395554
-1.34050298 -73.42058563 52.67672348
-1.44246948 10.25814915 30.39666748
-0.28282654 -84.19837189 53.52690506
-0.97729796 -78.00502777 49.93787766
-0.91731036 -34.77904129 65.62796021
-0.86639249 41.65745544 53.53905869
-1.29391170 52.44761276 65.37110901
-0.79398507 40.42318344 53.03461838
-0.82060581 44.77682114 54.38699722
-0.61524481 39.36738586 52.20978928
-1.25482190 13.02254868 30.71236420
-0.81993663 -76.82631683 52.48331070
-1.25837886 58.66768646 68.38355255
-1.00726604 32.12092590 35.65727615
-1.22485960 -75.08651733 52.28418350
-0.70447105 27.33354378 33.22766495
0.08909818 -51.40766907 36.35432053
-1.22308838 63.27371979 71.74647522
-0.77645040 105.07097626 94.98911285
-1.13030136 56.15254211 58.54611206
-1.25919926 48.70294571 55.58143616
-1.18655312 66.89772797 75.36267090
-0.54388827 29.43953323 34.13274765
0.51260608 -39.60646820 65.89913940
-1.57728887 -78.01017761 52.01373672
-1.17807758 70.41110992 80.04992676
-0.39470467 -47.88851929 32.83491516
-1.13062727 73.81214142 83.39039612
-1.10928869 62.79878616 62.57444382
-1.10148704 77.24469757 86.23395538
-0.88110304 -59.73964310 44.48204041
-0.44411141 -77.68692017 49.07298660
-0.07655081 -76.52124786 67.23991394
-0.46835572 31.06388092 65.42286682
0.05693020 -53.69306564 39.72237778
-1.06758094 68.52325439 67.27815247
-1.06306303 82.77164459 89.62947083
-0.47747242 35.59992218 41.17059708
-1.04755127 88.69742584 92.19963074
-0.57504028 36.24633789 42.84158325
-0.76599777 72.12630463 71.04264832
-1.06792092 93.76045227 93.53105164
-0.66610467 -84.88895416 49.71568298
-1.04691327 98.78061676 94.05153656
-0.60369200 106.20452881 92.96964264
-1.02827299 75.95093536 76.50648499
-1.02653170 103.42871857 95.04291534
-0.02103883 -54.79660797 40.95009232
0.12190920 -55.93532562 41.78915024
-0.71521449 -74.82748413 50.74636841
-0.52093965 36.82691956 44.76508713
-0.98502409 80.66664886 80.95444489
-0.68310738 -81.17673492 45.69114685
-0.92899710 -7.56646013 69.85807800
-0.53056216 18.11627197 31.88500595
0.04138285 -4.40863800 70.13994598
-0.95474374 85.39745331 84.15806580
-0.45026311 -80.87345123 49.74623871
-0.66245729 89.70351410 86.19251251
-0.92934901 93.89237213 87.66618347
-0.66624087 99.47337341 88.55506134
-0.36716223 -82.77421570 47.44701767
-0.65833861 102.24942780 89.37992859
-0.97189456 -83.56739807 47.68399429
-0.30451953 37.40747833 46.76564789
-0.59750158 105.09283447 90.69533539
-0.29243273 -78.25331116 45.27535248
-0.27123597 -85.62966156 50.76454544
-0.68415207 -71.69666290 50.22986984
-0.50382984 -67.60826874 69.63037872
-0.76011866 22.04181099 32.42623138
0.44395709 -65.07708740 69.08350372
-0.38658673 -78.71533966 48.80092621
0.53480977 -82.12854004 47.81427765
-0.31965446 -82.77405548 48.02425003
-0.01797393 -24.59998322 67.27008057
-1.02648067 -81.53365326 47.77461624
-0.27182105 -82.95037842 58.67496490
-0.00956567 -29.84336090 65.97745514
-0.42282227 -81.26536560 47.44690323
-0.93153697 -83.22599792 55.52235794
-0.44160447 -84.10621643 48.28774643
-0.63468665 -23.76960373 26.53886604
-0.57706261 -27.11428833 26.29142761
-0.59683168 -18.36606216 27.59369850
-0.06704867 -45.27634811 31.00382233
-0.34623313 -75.15188599 45.83641434
0.26482922 -81.23066711 47.90467453
1.70280671 -50.02314377 34.71867371
0.12895912 -77.99552917 52.19583893
0.13381107 -72.54074097 49.97056198
0.02925843 -74.30539703 50.58272171
0.83494431 -62.58880997 45.18232727
-0.13591141 -84.88568878 49.71773148
0.07616767 -83.16276550 55.92234039
0.27047613 -75.09047699 52.36966705
0.03332064 -12.59568691 29.03742599
0.38888526 -71.67202759 51.27289200
-0.29271072 -73.35591125 52.76257324
0.41644964 -72.35405731 52.10849380
-0.13729978 23.93693161 32.80926132
0.05187064 35.91849518 63.74612808
0.09014425 39.09605789 63.32969666
-0.26492232 43.48314285 63.24406815
-0.26501790 46.75179291 63.79634094
-0.26501799 48.74769592 55.52249146
-0.26501822 52.69643784 65.66917419
-0.26501781 56.37610626 58.50962830
-0.26501754 59.24205399 68.95111084
-0.26501754 62.62556076 62.32323456
-0.26501831 63.63026047 72.31593323
-0.26501849 66.66947937 75.37653351
-0.26501778 68.49038696 67.08605957
-0.26501814 69.93384552 79.73470306
-0.26501819 73.32565308 83.24290466
0.11273333 75.06687164 75.18896484
0.14214456 76.84874725 77.31983948
-0.26501748 77.82350159 86.82474518
-0.26501799 81.25765991 81.34614563
-0.26501748 82.75694275 89.80418396
0.14140588 85.58099365 84.18460083
-0.26501742 88.69323730 92.36429596
0.24839266 90.60711670 86.61463165
-0.26501822 93.66366577 93.66281891
0.12687230 94.78578949 87.78298950
-0.26501793 98.86362457 94.20357513
0.19195822 103.48237610 95.16355896
0.42385983 105.70659637 94.37464905
0.48471212 105.89560699 91.67249298
0.16269098 -20.85162926 67.96046448
-0.22889851 3.97806501 30.56485367
-0.84225917 4.04475260 70.18743134
-0.26501688 10.28523159 30.55227089
-0.24622639 13.91941261 30.99842072
0.46958742 13.31568623 69.74474335
0.23104505 17.59891319 69.24360657
1.00922644 24.51209641 67.68849945
0.14356720 33.99809265 64.21766663
0.18862143 -57.15250015 42.97704315
0.03472055 30.64723396 35.22438812
0.61597109 -82.88919067 47.26867294
0.09268998 32.58270264 36.93707275
0.20886908 33.96401596 38.79920197
0.17477053 -78.35462952 48.56584167
-0.41652232 -81.04017639 47.77175522
0.73926139 -81.06575012 47.84772110
0.15240996 -84.65769196 49.59657669
0.30090880 -81.68275452 48.12488556
0.43751711 -81.14081573 49.10293579
-0.00787833 -61.59558487 68.08747101
0.38419387 -84.29943848 48.29599762
1.02177095 -35.47491074 27.12674904
2.31871080 -45.66449738 65.59904480
0.56910866 -47.26179123 65.68334961
0.31648684 -51.47993469 66.47424316
1.50020826 -28.69052124 26.35077286
0.30121931 -71.48464203 50.55261993
0.41676590 -84.05283356 50.78950119
0.26526493 -80.99671936 45.69287109
0.61782092 -79.91579437 47.87494278
0.46607143 25.46333504 33.09883118
0.83634722 -65.37047577 45.10726166
0.81690097 -69.09169769 45.63678360
1.11024392 17.88219452 32.90065384
0.88609385 105.01300812 94.78870392
1.17591512 -84.37639618 50.32385254
0.50243682 16.66303635 32.40911484
0.70261985 104.48630524 90.49941254
2.28181195 -48.18737030 32.90354919
0.78382391 102.08709717 89.47371674
0.76710892 99.40064240 88.68313599
1.28454924 37.47067642 47.53099442
0.48388416 -79.57865906 45.33884811
0.73914289 -79.79264832 64.09480286
0.74277276 4.45341444 70.13661194
1.55327773 -22.91454506 26.73262024
0.45498961 80.66664886 80.95443726
0.68403506 -7.54764462 69.82759857
0.57312524 -85.16677094 50.31153488
0.04440892 38.38113785 50.29600143
0.88814545 105.98416901 93.02828217
1.42943943 -75.26354980 46.03909683
0.39564711 -81.99884796 47.01108932
0.97644734 -85.08334351 50.90260315
0.51687604 98.78059387 94.05153656
0.54288441 72.06346130 71.09146118
0.93659294 -59.63252640 44.47543335
0.53788382 93.76043701 93.53105164
0.51752138 88.69741821 92.19963074
0.53303099 82.77165222 89.62947083
0.53754771 68.52325439 67.27815247
0.56627995 -74.47319794 50.86723328
0.57145506 77.24468994 86.23395538
0.56453699 14.22640038 31.30559921
0.75511372 -77.50182343 49.22761154
0.57925886 62.79878998 62.57444763
1.28567111 29.02957344 66.10962677
1.18790102 35.42185211 42.48865509
1.14050841 -76.77886200 52.12860870
0.60026532 56.15254974 58.54611588
0.60058951 73.81217194 83.39042664
1.41731155 -71.87696838 51.25566483
1.55135965 -31.81667519 26.52784157
0.60005146 -34.55014420 65.64827728
1.41247523 34.19087219 40.29410553
0.64804769 70.41113281 80.04995728
0.72916454 48.70296097 55.58143997
0.65651506 66.89773560 75.36267853
0.55098277 -72.25889587 45.86917496
2.10512829 -19.10232925 27.55991173
0.69305336 63.27371979 71.74647522
0.75101107 -73.43228149 52.64293671
0.36788023 -57.03523636 67.05220795
1.39774716 25.81438255 33.24945450
0.72834706 58.66767502 68.38354492
1.52444577 38.95755768 51.66897583
1.79524934 -58.41401672 67.01742554
1.02026832 22.41746140 32.85577774
0.78643203 -77.32055664 50.28482056
1.42764521 -60.96456528 67.77973175
1.33556473 45.46691132 54.71673965
0.76387209 52.44760132 65.37110138
0.74916202 12.68910027 30.67119980
1.40097523 39.71223068 52.59128952
1.49945915 -1.99345756 30.27256393
1.68577063 -82.66996765 55.37353516
1.29808748 43.35468674 54.23121262
1.35756838 -79.85556793 50.18726349
1.13874984 28.55914116 34.39611053
1.37202966 41.06994247 53.48998260
1.36262119 3.78867769 30.39620590
0.92237598 -80.57393646 45.79098892
0.89453435 46.58729935 63.54059982
0.75698519 -78.64579010 49.00989914
1.10281396 -7.39983606 29.95660591
1.62008286 -81.33781433 48.02545929
0.92890978 -10.89353752 29.45508385
1.20058620 103.71313477 94.70948029
1.05890357 -75.73445892 50.64754105
0.91422397 10.52039814 30.39875793
0.92138815 43.78897858 63.06407928
2.46512532 -67.10515594 69.35274506
1.10518801 -76.31080627 49.90518570
1.50869274 -39.32130432 28.32421684
1.34284341 30.41396904 35.74667358
1.89949155 -46.00395203 31.25698662
1.25177050 -80.16661835 48.06229019
1.46216476 -78.00286102 49.01347733
1.43659377 -75.81552124 49.96681595
1.10605037 95.00782776 88.16156006
1.15867651 -78.03893280 51.80020142
1.13829625 90.60275269 86.89903259
1.16147447 85.84835052 84.70941925
2.13200855 -82.40942383 56.57487106
1.90978444 104.91913605 91.83049774
1.72329831 -25.89479828 26.36868858
3.74179459 -72.23464966 69.00718689
1.22179079 81.06505585 81.61795044
1.49040425 36.57816696 45.18334198
1.64280975 -61.28535461 45.09398651
1.88641000 -0.47430775 70.00844574
1.60054910 -24.23976326 67.09847260
2.38184690 -79.95164490 47.76772308
1.63984680 23.20343781 32.75685501
1.79562974 -29.24905014 65.79565430
1.21987998 32.65530014 37.95380020
1.24561799 -73.81818390 51.73818588
1.27309930 76.88124847 77.89231873
1.96181905 -12.48130131 68.96561432
1.43265152 -75.19052124 51.72351074
2.28808904 -42.71751022 65.81580353
1.31025994 98.80458069 93.58380890
2.07612205 -55.78424072 42.19995117
1.29434049 74.82252502 75.54070282
2.56497359 -53.22840118 39.71559143
2.80659938 10.39849758 69.69488525
2.02150297 -57.72476959 43.81892395
1.64651513 -32.34598541 65.53478241
1.97453666 -84.24571228 49.36385727
1.36643457 -73.54258728 52.26485062
1.34818089 93.37253571 92.97219086
1.37617803 71.86881256 71.36002350
1.37015355 87.61372375 91.24402618
1.55730557 38.17011261 63.01338196
1.40348017 81.88082886 88.53639221
1.94601703 34.65231705 63.58755875
1.44361186 67.38092041 66.71170807
3.09586048 -50.68889236 35.78437424
2.29898906 -80.15839386 47.40904999
2.29127359 -51.02655792 66.03625488
1.46699584 76.42371368 84.93270111
1.55901003 48.47404480 55.70580292
2.24933839 17.28908730 69.13031006
1.54485011 60.91781235 61.80406570
2.21827936 -81.01351166 47.06177521
3.48141694 -76.72141266 66.75456238
1.51861608 55.42811966 58.68995285
1.54692185 70.89212036 79.77149200
2.10861635 -75.04246521 49.07568741
2.09043002 -79.25541687 49.64114380
2.92201424 -80.56648254 62.68781662
2.35853267 22.21840858 68.16038513
2.04492736 -77.90635681 50.79903412
2.31103659 31.51513863 64.98938751
1.65262532 104.07346344 90.87718201
2.59992504 -82.50202179 59.52125168
1.56381249 67.23884583 74.87552643
3.19776368 -75.48085022 67.72039032
2.02079725 104.98274231 92.97136688
2.88503647 -76.61723328 46.73308945
1.61384046 62.53719711 70.43289948
2.35844827 -78.48741150 49.31816864
2.49535894 -83.35535431 48.15251541
3.31970382 -73.67897797 68.59745026
2.38199544 -47.84184265 65.62049103
1.69360161 58.10214615 67.43930817
1.92580497 17.43195343 32.78012085
1.73597002 51.30789948 57.08020020
1.86248267 103.26344299 93.98176575
1.78237486 51.95618057 64.53835297
1.80105793 -82.78748322 47.30247116
2.99061799 -82.65543365 58.34479904
2.11871147 -82.63483429 53.87293243
1.82584298 100.00445557 89.45473480
1.92690170 -71.67777252 46.20412827
2.35942745 -69.28005981 46.07558060
2.70235491 2.28794789 30.27010918
1.87583733 94.80326080 88.64220428
2.79262161 -14.05249691 28.96761131
1.79328847 6.41150236 2.02195859
2.73615432 11.22205925 32.24354172
1.89610481 89.18031311 86.89742279
2.06403279 31.02045441 36.55700302
1.90069997 10.02350044 30.56360054
2.02920222 45.24847794 62.58633423
2.27295375 103.92360687 93.28037262
1.93159533 83.75738525 84.06308746
1.95106995 9.06630993 30.10910034
1.95210004 7.31513023 30.15839958
2.22502494 26.32428551 33.45237732
2.07941628 5.77926540 3.38062954
2.03716373 99.24546814 92.89228058
2.23426032 -76.74119568 50.22152710
2.13905025 7.50243998 1.11530030
2.01785636 79.67089844 81.14236450
2.32352066 4.88931561 1.53320754
3.29043031 -40.33744049 65.69640350
2.40319967 47.31633759 55.69660187
2.11500764 75.09587860 76.84984589
2.41829395 -56.66642761 66.41841125
2.09181380 93.48257446 92.18170166
2.65955591 -32.98430634 26.44798088
2.30104470 -81.61990356 55.02222824
2.19219017 41.77660751 62.49131012
2.72072816 -77.36206055 50.88108826
2.12749410 87.69163513 90.38575745
3.37677217 38.57556915 51.28227615
1.71879232 -20.07091713 67.84537506
2.64860177 12.87287331 32.43436050
2.81132865 -59.83633804 45.10040283
3.56346869 -35.05355453 64.98601532
2.63639188 36.62046814 62.68771744
2.17828918 82.13092804 87.69251251
2.45542622 6.52120256 0.60901916
2.90354562 -78.42343903 48.75096512
2.91859746 4.89667606 69.81444550
2.33549714 -36.67409897 27.31091499
2.97730064 -3.02872252 69.72222900
2.25935197 70.99140930 71.19882965
2.46979284 6.53719854 4.87325478
2.39574265 28.17967606 34.35585403
3.38381672 -7.24085569 69.32729340
4.65591764 -68.90699768 69.24095154
2.28307819 76.89395142 84.15259552
2.31939125 -75.21178436 49.42433548
2.39742994 100.40396881 90.24482727
2.73979521 8.44922924 4.66002417
2.93097520 -78.15015411 47.12828064
2.81928611 21.01839066 32.29400635
3.16041946 -46.31019211 31.55667496
3.19077921 -62.28104782 45.76342773
1.86686718 -83.98535919 51.28449249
2.35013604 66.15544128 66.56192780
2.37654161 71.72920990 79.38681793
2.39833879 60.52265167 62.31558228
2.56641579 -64.32145691 45.52651978
2.75478292 4.80520439 3.41562796
3.01582789 35.02357864 63.02867889
3.15178156 -28.73445320 26.21360207
2.41569996 32.59260178 38.43090057
2.52159286 102.88851166 92.02839661
2.72698379 35.27073669 42.62713242
2.43989754 67.73484039 74.04192352
2.45583749 55.19243622 59.42254257
2.33413053 8.69697380 1.73415709
3.29475641 13.58586979 69.37842560
4.80279160 -71.24523926 69.09074402
2.48666000 93.97380829 89.20173645
2.50769734 62.95062256 69.55727386
2.53908205 99.45649719 92.00074768
2.88700867 41.91637421 54.75293350
3.23018527 -83.37691498 50.04185867
2.52402735 88.72603607 87.48777008
2.66808677 51.06250381 57.82142258
2.61238050 58.07527924 66.31362152
2.58719635 83.67283630 84.93044281
2.76500702 5.24888086 0.98004693
3.42172790 -78.60247040 49.73764801
2.72533131 5.40175724 4.52503300
3.62342429 -22.50931358 26.71175385
2.93060040 46.61923981 55.94367599
2.72734427 -80.94229126 55.39758301
2.94490027 39.98254395 53.85780716
2.62969804 93.65040588 91.17228699
2.80632448 -80.11449432 55.69697189
3.33905578 -77.95614624 49.96120071
2.66989231 88.10494995 89.44332123
2.69507241 78.84548187 81.53086853
2.76222277 94.71161652 90.29814148
2.71618557 52.14736557 63.56980515
2.74834967 -81.25114441 55.96455765
3.19941187 39.15560532 52.94263458
3.33696365 10.08235168 4.84251928
2.79202795 -79.87136078 56.81400299
2.74043155 82.63816833 86.76977539
3.44577813 8.21807384 0.69482797
3.33173680 -81.28129578 56.96166992
2.78301048 74.22075653 77.06350708
3.38828158 -23.15390396 66.76869965
2.85122085 77.57746887 83.28804016
3.65084958 26.91634750 66.50496674
2.81098843 88.31902313 88.36176300
3.05010009 45.46905518 61.58505249
2.84646988 15.91870975 32.26727295
4.04535198 -73.66155243 47.21533585
3.62609243 -82.92372131 49.11694717
2.88192725 -40.48635101 28.74089241
2.92298746 81.14073181 84.54129028
3.46419764 -81.60346222 47.73288727
3.76887274 -81.65718079 53.37832260
2.97393537 23.82656860 32.63902664
2.96156454 72.98028564 79.00146484
4.09431982 -56.20004272 43.73617554
4.21833658 -31.85700035 64.75541687
2.95125413 70.22678375 71.72402191
3.03385305 -79.77682495 57.35553741
3.17947674 4.35742378 2.13310385
2.32565975 -54.61277008 41.30896759
3.72489023 -78.64865875 47.79899597
3.84578562 -81.16766357 54.68719101
2.95498633 7.45132160 30.63072205
3.76368880 -2.42741537 30.45442390
3.27044034 -78.51210785 48.86949921
4.05091810 -81.02677155 61.66552353
2.99502993 5.30003023 30.08900070
3.05318999 -33.29048157 1.21745932
3.06256938 68.62094879 73.31798553
3.45396924 -60.71657562 67.29779816
2.75552320 9.70531654 31.63273811
3.05909061 -30.92167282 1.96287704
3.04805160 65.60980225 67.28109741
3.70513630 -47.99076080 32.92467117
3.01882005 6.77932978 30.08839989
3.23180914 6.39789820 6.01544714
3.30772424 30.61612892 36.47492599
3.10080791 73.57002258 77.92707825
3.09132528 60.05171204 63.15482330
3.01899409 22.68146515 33.59188843
3.13088131 -31.35789871 3.30332947
3.62991285 -34.69892120 27.32133865
3.24101353 -33.16434097 2.90026188
3.12603354 63.36278915 68.41927338
4.42243385 -53.09377670 40.48015976
3.32217431 37.78698349 48.34693146
4.56592941 36.95070648 45.95160675
4.05425262 28.30482864 34.78796005
3.32329535 -30.86323166 -0.07171541
3.13471079 17.32732391 33.15195084
3.19542956 53.96242523 59.98414993
3.99407887 -8.07219219 30.35540962
3.32382941 -32.08246994 -0.20114699
3.22216034 69.67546082 72.74752808
3.46844149 46.22739029 56.49226761
3.36305904 -32.19649124 26.72962189
3.13501167 -77.68139648 49.38651276
3.93300772 -82.29439545 59.36100769
3.20452762 33.70803833 40.37368774
3.47329712 11.96394539 31.90014267
3.28320813 42.01908493 61.52829361
3.88678050 -79.93327332 47.66552353
3.22642279 58.96073151 65.47223663
3.57513309 5.67917013 5.69073343
4.08564425 -64.80861664 68.67068481
4.24429989 -77.81781006 48.45228577
3.45935917 -79.70562744 57.85092163
3.35284352 52.03500748 62.18975449
3.32005239 65.04546356 68.27763367
3.56958604 5.61548042 0.60654396
3.38972044 24.48230934 33.89141464
4.32595682 -49.48742676 34.57359314
3.43931079 3.79295826 1.08381414
3.39374804 59.64029312 64.33814240
3.46765971 -31.48147774 4.34149218
3.84535623 20.11608315 33.01283646
3.46425152 26.64859772 33.63691711
3.39463234 50.48919296 58.86351395
3.44629192 -13.18504810 68.48172760
3.72685647 10.86950111 4.53629780
3.67070580 -34.45229721 1.42449248
4.37256002 -43.56106186 65.58439636
4.50141335 -66.32254028 46.58442307
3.64261007 -28.17870331 26.46284866
3.91049242 -49.71483612 65.35596466
3.68866587 3.20861149 2.33728933
4.06543398 10.70350456 2.54821897
3.71893287 -28.20119286 3.72141814
4.22062349 -25.70376968 26.26355553
3.56807661 51.50681686 60.45561981
3.33276510 -77.55872345 65.88717651
4.14533186 -57.31650162 65.71963501
3.71481800 -44.10542297 30.42535019
3.89458847 -54.46978760 65.50095367
3.76180363 8.64445114 7.03980541
4.43250322 12.85235596 31.70784378
3.89225483 -33.67732239 0.01810907
3.68053341 4.67658567 -0.03800935
3.52925515 -25.93242073 3.71726084
3.59285259 -27.63511848 65.60741425
3.82812023 12.16578579 32.08524704
5.31181335 -75.61468506 48.33621216
4.19266558 8.16968918 32.51042557
3.62209368 -18.52199745 27.76763153
3.74665332 -25.64672279 3.13338709
3.71199298 -26.91209412 3.39884853
4.19601679 3.48666310 4.10669088
3.77963090 45.59523392 60.29194260
4.03768015 -57.84222794 44.97251129
4.08310127 37.51014709 61.31566238
3.85306478 46.12683105 57.43387222
4.42871428 10.33904266 8.64706230
3.66784620 32.45458221 38.94334030
3.63780499 -27.87452888 1.52354455
5.15672445 35.86169052 43.89058304
4.50641870 7.45716715 0.44267946
4.40729856 -54.36283112 42.13043976
3.89293766 -26.30454636 2.34451985
4.52803993 32.45796967 63.79066086
3.93188429 40.65055084 55.77766800
4.02854109 -32.66099167 4.22140026
4.70558500 -70.30377960 47.22159576
3.90217519 17.50322151 68.77109528
4.19118261 -81.40908051 57.45614243
3.93561411 -31.34962463 27.08786201
4.72688961 -76.30907440 67.68231201
4.22820902 -27.54491043 27.09030533
3.84389496 -82.01159668 48.41764832
5.08167171 -80.62892914 50.77019119
3.44920492 -79.72717285 55.16177750
4.30038881 3.75452375 0.01188290
4.13642836 44.66666031 58.50888443
4.51910019 -32.01088333 -0.69509828
4.13889980 -24.93567085 3.47464275
4.05230570 -27.98604965 4.78162050
4.22347021 5.94527817 31.96223450
3.97553658 3.38767934 30.29410362
4.75468349 20.63134956 32.70675278
4.10045815 -30.73077774 5.11517954
4.53102779 -47.42311478 65.22764587
4.10394669 -34.73141479 1.86652422
4.17454576 -81.62392426 52.39610291
4.90462780 -36.66197968 28.20810127
4.09879065 26.76649094 34.72891617
4.78826571 29.54654694 65.12312317
4.43800402 35.92211533 61.56873322
4.36404848 -79.54489899 58.23555374
4.70671225 -42.61410522 30.12752151
3.97633004 5.21484995 30.87599945
4.15901184 -12.57232952 29.57749367
3.98766994 4.83535004 30.23200035
4.45924616 -24.01634979 9.26393223
4.02854013 43.32089996 60.14400101
4.45153189 4.65951586 -0.42753828
4.03349066 22.53015137 67.71758270
4.69851637 7.89364243 8.06895161
4.30325842 -21.03927422 27.14356995
4.38888216 -28.01578903 -0.27042598
4.20578814 39.05433655 54.61907578
4.55902529 -25.10917473 10.20262909
4.16520739 40.68433380 60.74541473
5.28008890 37.55645752 47.95837784
3.79631782 -38.04351425 65.34056854
4.10994768 3.02182078 0.95947200
4.36065769 5.84703302 -0.52891010
4.42985821 17.98797989 32.13090897
4.08508110 31.13160324 37.70252991
4.72204113 13.46667385 31.37056541
4.40257454 40.06382751 56.69743729
4.98738384 2.53988433 2.16538835
4.24633932 -79.61268616 55.09738541
4.64415884 -80.04312897 48.48851013
4.65721941 11.77533627 8.29333496
4.62346268 -30.44502449 -0.62057859
5.09762907 -34.17997360 0.50995278
5.93308592 -80.57901764 55.04813766
5.78823233 22.22852707 33.08740616
4.52657175 5.54984426 5.90444374
4.54241037 -45.99702835 31.74749184
4.89105511 11.84369373 4.24675608
4.65791941 7.88998795 32.17047882
4.92318964 -60.85224152 66.78498840
4.64199448 -28.66658783 5.50525236
4.57018089 -27.47119904 27.56638908
5.06591845 -22.50482559 26.99854279
4.88002396 -26.10562134 9.97893047
4.93427420 -77.12883759 65.75552368
4.56688213 40.82308578 59.78175354
5.08105183 -25.25926018 28.57773399
4.82728338 -76.79561615 67.06623840
4.31395054 -24.50730705 6.27259874
4.62027597 -23.98444366 11.62166595
5.19784164 -73.83333588 68.81520844
4.63136721 -34.58370972 2.53780055
5.54192352 2.90317750 0.86511457
4.57430315 38.38564301 52.05869293
4.81810999 39.02672577 58.46292877
5.06377077 -31.69059563 5.04212475
4.76152039 -28.55564117 27.16427612
5.64132357 -58.70467377 46.37496948
5.22394943 -77.59304810 48.93997955
5.28051329 -23.68944550 4.86196041
4.50782299 -2.71722794 69.22986603
4.55199814 4.61564636 69.32503510
4.97039318 -26.88142967 65.11990356
5.62103844 -81.04682159 60.42726898
4.87845564 4.17607546 5.44230747
4.77319431 -23.23571205 9.86467361
5.96390390 -64.35792542 68.03030396
3.49790835 -82.13056946 57.55689240
5.72525692 -22.68300247 28.65686226
4.73938513 37.57629013 60.07429504
4.60704327 -11.89027214 68.23005676
4.98805952 28.08764839 35.66944122
4.93111324 8.27885914 32.01877594
5.50163984 13.28099728 8.71975708
6.06878853 -78.44405365 63.40668106
4.79476070 9.56029892 9.38098717
4.66944695 -50.80626678 36.60510254
4.65132475 -79.54974365 55.18004227
4.89361572 38.50370026 55.75574493
4.66120338 -16.74104500 67.31298065
5.19381237 10.18795204 31.18559456
4.81890392 16.08576584 30.95079613
5.95874310 -81.36698151 58.54248428
5.59718609 -27.11062431 10.03870296
5.54744577 25.52484703 34.43426514
4.94977474 11.95055580 69.01651764
5.96963215 7.09198666 0.07023478
4.88376904 -26.19694710 26.83739853
5.08888960 2.91609001 3.86989713
6.71876431 1.41294444 34.37767792
4.83452988 3.60119009 31.21859932
5.32306290 -61.49571991 46.72447586
4.84799004 3.26341009 30.47030067
4.85750008 1.72107005 30.63610077
6.10735321 -31.56415367 27.60640335
4.93711996 -24.84169960 2.76187205
5.44793892 -53.91780853 42.51670074
5.21301794 12.07048416 12.00306511
5.43627310 -33.86775589 4.88911772
5.38935757 -23.43465233 27.20265770
5.61496735 -29.49173737 -0.73207319
5.55633354 -79.22092438 57.97823715
5.38399696 -35.81900024 1.52285635
5.19528913 -22.61713409 9.50076771
5.24053574 -28.30271339 7.17537737
5.45437479 -0.73047096 31.00769615
5.70104599 9.11700535 1.10133469
5.19913483 -25.90600777 0.73887885
5.54659081 12.94398499 5.72393560
5.04748154 -23.37391472 17.07054901
5.58126879 -80.57931519 52.96059418
5.47250032 13.32822990 11.78973866
5.15567636 37.92379761 57.46626282
5.14181948 -24.33284950 17.88825607
5.20794630 -35.53656769 2.87255692
5.99060154 -18.60625648 66.14757538
5.64862919 -23.00467110 26.95152092
5.36491060 10.98015785 12.21497631
5.13279867 17.85883141 31.21647072
5.17582083 37.33594513 58.93625259
6.46190357 14.43395805 8.90011406
6.37368774 -66.72728729 68.61283875
5.04363680 -79.42193604 55.33535767
5.18477201 -22.75070953 25.55330276
5.50967216 4.61743689 33.20837784
5.25306845 -25.22976685 15.60246849
5.09594440 -24.66681480 26.21900368
6.10610008 -42.23912811 65.21011353
5.16932917 17.05807877 68.43448639
5.34181404 -30.36351204 5.67288876
5.77290344 -32.48460770 -0.46581280
6.07661438 -68.19451904 47.74225235
5.55613422 -34.65124893 64.19539642
5.10508251 -14.79125881 29.24170685
5.86100245 6.14449358 -0.28301099
5.45558977 -54.97637939 64.55002594
5.93565416 -56.52382278 45.55644608
5.68625021 3.83943319 5.57375717
5.27813005 13.79631138 29.25041771
5.16044426 -23.71113014 25.30499077
5.49196815 -35.17262268 0.40244815
5.69670773 -80.84607697 57.60595703
5.53278780 10.07177639 1.62710238
5.49102116 36.25581360 59.84775925
5.58050823 9.14058685 10.24090385
5.84441948 7.65796471 31.28753281
5.23218822 16.43176460 29.85545921
5.54761791 -10.50590324 30.52113533
5.88455963 6.76888275 7.65890789
5.29113483 -22.64951134 23.66851807
6.13927555 -44.90876389 65.17501068
5.38253736 -48.38508606 34.05700302
5.21861649 -22.49439430 17.70553780
5.57511234 4.29654217 -0.21855949
6.02548170 -25.50241470 64.62863922
5.66456938 -41.33411789 30.15844536
6.15858889 -39.17861557 64.90940094
6.01200342 -78.01425934 50.01213837
5.38468981 -24.64393616 25.42471695
5.36893463 38.09348297 53.06023026
5.92870808 20.46943665 67.50046539
6.66102171 30.05231667 37.76856613
6.25913334 -28.55979729 -0.79418051
5.29727077 24.42549133 66.75712585
5.51438618 10.74664402 29.67684555
5.94362402 -79.47155762 50.93347931
5.43252897 -79.24246216 55.58517456
5.81136894 2.69533896 1.93934822
5.45911360 -26.33138275 11.83634758
5.60322809 -34.98168945 4.11923456
7.00429773 -80.38681030 57.37837601
6.98316574 -69.86965179 68.90326691
5.47057867 -76.60406494 66.52188110
5.64256859 -25.26714706 22.39163017
5.68425417 -21.35171890 18.26190758
6.14661598 -80.13456726 55.71016693
6.61586475 -29.18459702 6.37466621
6.01606417 -27.06623459 27.19026375
6.11210632 -62.85260010 47.47222137
5.66652298 13.98509312 25.59916687
6.17509604 2.98675060 3.38792729
5.94816303 24.26783371 33.94644928
6.17348576 19.22368050 31.22309875
6.06257296 20.56804085 32.36277771
5.86442995 -45.29712677 32.16193390
5.60442257 -50.41746521 36.56513214
6.05004406 -34.53520966 -0.47760636
6.93799973 -71.98114777 48.85121918
5.82189465 -26.06093025 26.86218452
5.39689255 -49.47517776 64.65306091
5.65582991 2.33389997 31.50970078
6.37868881 28.14127159 36.26451874
6.19886827 -7.16720200 68.15547943
6.10703039 -3.61975384 68.49442291
6.37869501 36.51694489 45.63365173
5.86583424 14.07240868 17.15855217
5.75356388 11.67930698 26.95728111
5.71366978 1.63153994 31.02540016
5.93470860 12.85160160 17.41317177
5.70150805 16.11942101 28.82916451
5.79087687 -21.94459152 28.77163506
5.80437136 -25.46690369 26.21337891
5.95730257 11.73766994 15.70831585
5.86930990 37.65218735 49.45697784
6.60204029 8.05751896 9.45992947
6.31127167 -32.24691772 63.70040131
5.93993711 -25.88760948 18.78768539
6.31912470 -31.78855324 6.10640192
6.29130030 -73.20590973 69.26509857
6.39119387 -13.55305958 30.24369621
6.30784035 -57.27462006 64.40862274
6.05398607 15.75017071 22.06929588
5.91429138 -25.72345924 0.50875151
6.03665972 15.89648724 25.10686874
5.90087748 -13.58357143 67.28488159
6.86707449 32.65925217 61.76250458
6.21081591 -75.20890045 69.18791199
6.65428448 -80.18677521 57.13103867
5.90701199 14.38841438 21.78909492
6.44406557 2.86911488 0.23247150
6.49452496 -30.08920479 -0.76896214
6.22496891 10.38237190 13.82748318
6.30588818 3.96769571 -0.51636207
6.46567440 -60.94620132 65.94751740
7.04426289 34.28396225 42.30134583
5.90200710 4.34685612 68.76307678
6.26700592 2.37227058 1.51757622
6.27570820 -21.98932266 7.75791788
6.46995831 -28.55229950 27.46920395
6.02474117 -78.93974304 57.51975250
6.50265026 11.04997826 2.63774443
6.00345421 13.30626011 21.95803261
6.08982706 -76.07825470 67.40313721
6.32355690 16.64492989 26.44661713
6.27943754 -35.80500793 0.68573457
6.04085875 -78.83409882 56.62358475
6.60834122 -29.87721825 6.12097692
6.11757278 -20.97939491 28.57571030
6.15890265 -20.85741997 23.57799911
6.44125509 -53.27587509 42.77776718
6.68087196 -35.80297852 3.56386137
6.03546333 36.76660538 57.62877655
6.43048048 -20.96631813 28.02873039
6.79697323 30.76971436 63.23756790
6.75949717 -76.65426636 69.44094849
6.42520285 4.39704275 32.99252701
5.98727512 37.58679962 54.74753952
6.07010317 11.04274368 26.12928009
6.32819605 15.37797260 13.67671013
6.17708731 15.61959839 18.32819176
6.46280718 -20.61360550 14.44762039
6.19288921 11.57015991 68.51150513
6.20020866 -36.20597839 2.26707911
6.49513531 -33.21040726 5.71655893
6.65989780 -53.08428574 63.55080032
6.39629412 -50.27109146 63.94678879
6.34010315 -26.19746780 22.36167145
6.97323990 -24.20597839 1.87690210
6.08031225 8.02274132 29.73662758
6.21529531 12.67222023 21.40727615
6.54132938 2.90482330 33.89966202
7.18287516 -32.38764572 28.17070961
6.48439121 12.04540825 20.24592209
7.43230009 -74.81165314 50.17085266
6.74350309 -33.22602844 -0.55371594
6.26689005 -75.99711609 66.18915558
6.91492224 -22.76387405 4.38591051
6.41419506 -28.48064804 8.53588867
6.90544844 -20.49688530 29.61137199
6.70666552 -3.95223093 31.61920929
6.41352367 -34.61960602 4.82952070
6.62997103 -20.61478424 30.04264641
6.52881622 17.97051239 28.77963448
6.52259541 -18.88849258 28.76981926
6.62839079 7.11669207 29.80701065
6.30663061 -25.81673813 24.17982101
6.77214193 -27.28940582 -0.27772582
7.01908445 32.55792618 40.25356674
6.48346376 -42.42739487 31.15961838
7.03859806 4.33629227 5.55282640
6.40719795 28.78088951 64.56692505
5.79764509 -7.66569567 31.01910210
6.56660795 -26.51909065 18.43337631
6.39684916 16.51862144 67.96392822
6.52134562 -74.75278473 67.13625336
6.75418234 2.66123581 3.25135279
6.77121973 5.36764002 -0.95519125
6.87944555 35.46023941 43.96420670
6.83626318 -19.81615639 22.34123611
6.47215271 11.38000965 24.12452126
6.56643105 1.21592402 32.88719940
6.74101067 37.35723877 52.81116104
7.07752323 9.41858959 12.63939762
6.69206476 17.54874611 21.10180092
6.43986988 -47.12049866 33.96939850
6.88911629 10.90867329 17.46168137
6.50209522 -21.13637161 10.60116005
8.14338112 -35.14445877 29.51217461
6.47225475 24.08135414 66.27861786
6.94851971 -19.40562248 30.18957138
7.12025309 6.51868868 -0.42462513
7.31359005 -66.98295593 48.74303436
6.50026989 1.29252994 31.70159912
6.85492563 8.14078712 27.82427216
7.57029629 10.63242054 2.15915394
7.87734413 -79.36365509 54.51807785
7.65610695 -32.34107590 -0.50867933
6.78775120 -51.48468018 39.64940643
7.83753109 0.58065468 35.48744583
7.15797281 -62.49193192 48.41529465
6.78192616 6.60320330 7.72613907
6.93690729 6.40040874 29.48782349
7.11295462 -58.22271347 64.16648102
6.73357773 0.10485615 31.80830765
7.31187487 -19.27297020 19.61142921
6.93943930 11.31612206 22.78451157
7.31722069 9.02962303 0.94672179
6.84716463 20.42038155 31.80732346
7.04226160 25.97443008 34.92964935
7.10984516 -74.01705170 68.34724426
6.60884905 -48.92302322 35.83967972
9.82935047 -77.58315277 72.16114044
6.80694532 37.33010864 50.19632721
7.16401529 13.27790070 5.05859518
7.26352692 14.72176170 8.30042744
6.33976746 -27.00697899 12.20166588
7.21554995 -27.86864662 10.64308643
7.11720800 -74.51678467 66.02769470
7.49273205 -11.49798489 66.67715454
7.59147024 -57.44977951 47.76850891
7.73189688 -54.91318130 62.65322876
7.20295238 -72.89441681 65.94914246
6.87979078 -27.80695152 27.10256577
7.04873562 10.02092743 14.49360657
7.11859035 8.60102940 10.53166866
7.16887283 18.49530983 27.84188271
7.30321884 -21.10042000 28.65971756
7.15549517 19.81702805 30.89631271
7.07838488 -43.51528168 32.19422150
6.72233057 -80.31490326 60.14042282
7.17336798 -56.04052353 46.62994385
7.11626577 -73.24940491 66.68175507
6.60902500 -60.03189850 47.38761902
7.42631721 -20.27079773 29.54259872
8.09034348 20.65917587 21.21655655
7.12227678 10.02969646 24.92403030
7.50249672 -21.92607307 5.86789513
7.53112316 3.94438362 -0.34514749
7.32035685 36.21281052 56.01983261
7.75059271 18.70966911 18.64472961
6.37006950 -76.85275269 68.14483643
7.57182169 -64.19364929 67.16483307
7.42385006 -27.65224266 -0.51209015
7.55583954 -34.55139160 4.49014997
7.46363878 -45.22959900 64.59484863
7.26310539 -26.71193504 25.79595375
7.54380512 22.25087166 32.87734604
7.33148289 11.45440960 21.19241905
7.73497629 2.99103475 0.52223402
7.44810629 3.23158526 4.30477285
7.45645237 -42.09287262 64.65846252
7.39349413 18.62381744 25.71449661
8.48749924 -68.39364624 68.41825867
7.42491865 -35.45280075 0.80390424
6.57767344 12.23538113 3.81288695
7.43596268 19.24162102 29.46215439
7.85877228 2.56632137 1.87293053
7.52694798 16.74190331 12.99262333
7.94149971 -78.25981903 52.60993576
7.50984812 -54.59724045 45.80834579
7.21782207 -16.23078728 65.84090424
7.49326754 36.55504227 54.69952393
7.50474405 -26.94604683 20.93042564
7.54794693 -35.98781204 2.71369433
7.49987316 -35.62004089 3.34843230
7.56777096 -74.33619690 70.14514923
8.23330593 -30.37182045 -0.78233051
7.19402456 -74.77301025 68.88901520
7.61969519 -34.83790970 63.14790726
7.20347023 0.56918901 32.78870010
7.66851044 -72.74401855 69.69181824
8.80282307 -0.69714206 36.63473892
7.87681627 36.68287277 48.76706314
7.66407156 28.38248634 36.69530869
6.96715355 4.39790678 31.99567986
7.53145599 -44.90827942 33.48962784
7.95714617 -28.70676994 9.05022144
7.70282602 -31.03302002 5.98944616
7.98157930 -71.04309845 49.71611786
8.24120903 -32.31792831 28.61005592
8.09552765 -17.88584709 28.28832626
7.22802782 -48.64365387 63.72011948
8.20883942 4.88803244 -0.15462232
7.31689978 -30.25110054 27.93969917
7.62355280 0.11081441 32.48554230
7.38390923 7.25945139 68.00058746
7.86413717 -38.35043716 63.97906494
7.11093330 17.89985466 19.50769997
7.44640303 -71.08900452 65.24979401
7.80702925 -18.53824615 29.84811211
7.94478941 27.54047012 63.83150482
7.45528555 -24.70803070 63.61508179
7.66424513 -61.28528214 65.19670868
7.80792809 -50.82809448 62.57924652
7.94108248 -50.45074463 39.71392441
7.70843220 -18.71457863 31.22316170
9.39576530 -76.46125031 71.96469879
7.41902018 -29.14509964 27.48299980
7.73194075 -77.48984528 62.90169907
7.41892624 2.37448955 33.96956253
7.57216930 -2.87174582 67.69641876
7.73831892 -70.86830902 64.12126923
7.92565870 -19.05854988 15.88424492
7.79101181 -27.46278191 12.68238163
7.50413752 23.85223007 65.63732147
7.53547001 13.84776592 67.63219452
7.85837412 6.73896790 28.07868004
8.27248573 10.06948376 23.66196060
7.94803381 -52.86348724 44.28371811
8.38771439 -77.67783356 61.48746109
8.65224266 -66.30883789 67.64949036
8.37893009 -29.30323792 6.15674400
8.20097446 34.36297226 57.96240997
8.66283321 -76.90664673 52.58186340
7.54495001 -47.07210159 35.16500092
7.85503578 -22.65260506 4.03988600
8.04598713 9.62388420 1.10951519
8.37495232 7.97570229 9.04443359
7.56986523 18.99806404 66.83141327
7.42239523 -26.56605911 24.41154480
7.80788469 36.18488312 46.35514069
7.41057682 -31.01696396 63.07441711
8.16664314 -61.74138260 49.56320953
8.07661533 -10.65823841 32.17827225
7.84666204 36.78099060 51.07046890
8.94905663 -29.98673058 5.77792740
8.11901283 4.08124685 5.17011595
8.39435673 6.73420906 7.41061831
7.48112917 -33.89202499 -0.29451677
8.82519245 -6.82213879 66.43667603
8.10338402 -1.49819255 32.95267487
8.14540863 9.03730965 11.70108032
8.82600021 -74.01348114 51.50082779
8.00402832 -20.76577568 29.24223709
8.37229538 -36.18704224 1.83884919
8.20468330 -35.65094757 0.62698227
8.34430885 -76.14363861 63.74700165
8.31064224 -34.63580704 4.70551491
9.35615253 -32.63265228 -0.48400369
8.03517056 -48.74302292 37.50281906
8.10179329 6.92489433 -0.17994727
8.75724411 -71.44772339 66.29329681
8.15071774 3.21650958 30.99312592
8.43615055 30.63407516 38.89208984
8.21673298 -73.23048401 64.43779755
8.65677166 -17.12946892 27.64861298
7.99197960 19.18577194 27.14498520
8.13322926 -17.65524101 31.00512505
8.12709904 -28.84067917 -0.69283909
8.32529259 3.36002111 3.70842147
8.36646557 -31.28457260 62.23562241
8.35582924 -28.11808968 26.65214157
9.17731953 -72.07176208 67.41159058
8.08057499 -70.88270569 63.05755615
8.27095318 -58.62018967 63.19100189
8.34566784 -53.23865891 61.72051239
8.53329659 -33.23259735 -0.60082847
8.09562683 -79.45906830 58.39570236
8.68877983 -33.90012741 62.21752167
8.48648643 -35.70613480 3.62010455
7.67606306 -32.64224625 5.58960295
8.47361183 -28.15960693 10.33618927
7.98842096 10.44391251 17.90456009
8.52967072 -27.18003082 25.63191032
8.23553371 -26.13580132 0.11813442
8.73175335 -71.42647552 69.54987335
9.11319256 -36.16600037 30.67273521
8.52502441 0.37372464 35.41710663
